# .PCD v0.7 - Point Cloud Data file format
VERSION 0.7
FIELDS x y z intensity
SIZE 4 4 4 4
TYPE F F F F
COUNT 1 1 1 1
WIDTH 1160
HEIGHT 1
VIEWPOINT 0 0 0 1 0 0 0
POINTS 1160
DATA ascii
3.9040952 -4.9146905 -0.70087367 10.075
4.0943303 -4.9047432 -0.71816987 10.691751
4.2842412 -4.9030571 -0.73881382 8.8539677
4.5148101 -4.8920188 -0.73804361 10.321428
4.6662645 -4.9130216 -0.74672878 17.271429
5.1066375 -4.9235735 -0.79413617 9.5
5.676548 -4.9892998 -0.63144046 20.222223
7.0280128 -4.9177699 -0.70437038 3
2.8594134 -4.7528315 -0.71638775 9.625
3.0424914 -4.6976404 -0.73040408 6.729167
3.2440796 -4.6282253 -0.74449039 9.1000004
3.8836966 -4.7484846 -0.70986962 9.204546
4.1371784 -4.7123399 -0.70557284 7.6958332
4.3099041 -4.719214 -0.71267402 9.6612873
4.4481721 -4.7064357 -0.7266289 15.770238
5.0598145 -4.6423531 -0.76908123 9.833333
1.1960636 -4.4770017 -0.72466576 2.25
1.2573513 -4.446557 -0.7216717 2
2.5774081 -4.4918928 -0.6914742 9.727273
2.729799 -4.4313712 -0.6920436 9.3999996
3.1703608 -4.5946102 -0.71530157 7
3.2819953 -4.5316224 -0.71482128 6
3.4564412 -4.4826541 -0.73389536 8.1416664
3.6107869 -4.4363565 -0.74527442 12.333333
4.108077 -4.4994154 -0.69903827 8.3249998
4.3340702 -4.4906263 -0.69291949 8.2354803
4.4718862 -4.501904 -0.70173258 5.6458335
7.0264487 -4.4548707 -0.68381923 10.333333
1.0341946 -4.2273183 -0.71325916 2.0769231
1.9620074 -4.3239884 -0.73204923 1.6666666
2.0220687 -4.3145332 -0.7294603 1
2.8415062 -4.380167 -0.69211996 10
3.111675 -4.2981615 -0.69370782 7.4055552
3.300396 -4.2778873 -0.65143228 8.9615383
3.5259004 -4.3507562 -0.72708511 8.3714285
3.6430452 -4.2530241 -0.72549868 9.9375
4.1709018 -4.352263 -0.69386989 6.25
4.3616657 -4.3411565 -0.68707192 19.624359
4.4908438 -4.3312907 -0.70378292 5.3052778
4.6224928 -4.3972435 -0.71169138 5
4.8658619 -4.3089457 -0.77258289 1.5
7.0488815 -4.3073649 -0.64274555 9.75
0.89370263 -4.0813851 -0.71289718 2.4285712
1.0965507 -4.0718236 -0.71180594 3.0450001
1.2554908 -4.1197314 -0.69246107 8.4206352
1.5423033 -4.051568 -0.77073777 2.9000001
1.6091378 -4.1063547 -0.79228646 3.2083335
2.5307784 -4.0515833 -0.73798037 1.8
2.7103951 -4.1005306 -0.72271615 4.9488635
2.8789475 -4.055593 -0.7263484 5.1083331
3.3172588 -4.107347 -0.70917028 8.0799999
3.4906693 -4.0979276 -0.66425687 8.8000002
3.7510347 -4.1475892 -0.74135423 10
3.8420205 -4.0640941 -0.7411806 10.230769
4.1910181 -4.1376748 -0.71640915 2
4.4943442 -4.0442166 -0.73209119 6.8333335
4.6087198 -4.0912976 -0.7440545 2
5.3096094 -4.188447 -0.60647029 1
6.9960823 -4.1369119 -0.63512439 3.7222221
7.0223341 -4.0889516 -0.62661648 9.9439392
0.70451927 -3.8295863 -0.72793353 4.0609846
0.93993789 -3.865447 -0.72489977 3.2679894
1.0882884 -3.8906882 -0.72620004 3.4292293
1.2893233 -3.9116066 -0.73673993 3.559659
1.5000243 -3.887768 -0.75424862 3.1329365
1.6853483 -3.836699 -0.79093015 4.3083334
2.5925219 -3.9989328 -0.73345357 1
2.7961679 -3.8819931 -0.70394027 4
2.9018018 -3.916755 -0.71845227 9.3518066
3.09025 -3.8832836 -0.72141224 9.9090652
3.3071823 -3.8153934 -0.71881711 9.375
3.510093 -3.8940837 -0.72381121 7.8431816
3.6835737 -3.9121988 -0.73818725 5.5917611
3.8889606 -3.8811359 -0.73228538 7.4000001
4.335145 -3.9446359 -0.69750571 14
4.4067421 -3.9587438 -0.71455371 7.5
6.9974189 -3.8045182 -0.63643891 4.5
7.0294499 -3.9037819 -0.61809301 11.299182
0.54832363 -3.6564834 -0.72361964 11.831667
0.69659007 -3.6944067 -0.7357924 4.2584381
0.90763867 -3.6998036 -0.73149246 3.3141165
1.0889757 -3.6965811 -0.72498423 3.5317132
1.3006254 -3.710902 -0.72797233 3.9651203
1.4690824 -3.6967459 -0.73658866 4.6583333
1.6604176 -3.7124326 -0.77122903 4.3095241
2.9084079 -3.7201111 -0.7122727 8.5625
3.1572335 -3.725862 -0.71520537 7.8938303
3.3068249 -3.6805942 -0.72085863 8.3205509
3.4740791 -3.6768067 -0.72846627 9.9980516
3.6911366 -3.6674023 -0.7388047 15.347803
3.8513057 -3.7286434 -0.75879455 8.416667
6.9890327 -3.6760852 -0.62749511 7.3833337
7.0166979 -3.7027116 -0.62369144 9.7983341
-1.0668006 -3.451436 -0.69274849 13.25
0.3257885 -3.5061438 -0.70378023 16.966137
0.49233589 -3.5037076 -0.71365553 16.584929
0.71313447 -3.4864097 -0.74176902 3.6844492
0.90690273 -3.478591 -0.74522793 3.9042637
1.0921199 -3.5134981 -0.75372028 3.4099016
1.3205819 -3.5411947 -0.73233998 3.8150325
1.4989656 -3.5243824 -0.73052353 3.6807461
1.6013664 -3.5620673 -0.73209524 5
2.2944562 -3.4827342 -0.72222036 5.0875001
2.4702737 -3.4417591 -0.71056813 6.7874999
2.9072814 -3.5459163 -0.73602962 5.6666665
3.0917823 -3.5038054 -0.71167225 8.3760509
3.3137567 -3.5215094 -0.71150404 8.8632822
3.4775877 -3.5106559 -0.71933264 12.634219
3.6567917 -3.5644567 -0.74707699 12.099999
6.9316692 -3.4761689 -0.61596358 10.090344
7.0152192 -3.522336 -0.63302505 7.7888889
-1.0411514 -3.3169348 -0.70770091 7.2142859
-0.98398781 -3.2033765 -0.71882355 7
0.33236709 -3.2568855 -0.71914726 2.6666667
0.50517684 -3.2973099 -0.73021924 2.6331458
0.70274019 -3.2701774 -0.73366851 3.1027491
0.90509552 -3.3225355 -0.744542 2.8977196
1.1078244 -3.3014677 -0.74194598 3.1493139
1.2533299 -3.3134956 -0.76676214 2.6629436
1.534564 -3.2995255 -0.77395558 2.6875
2.0885234 -3.2797129 -0.69300723 7
2.3270607 -3.2351799 -0.71768951 8.5769234
2.4999359 -3.2937219 -0.71809453 7.9517093
2.7379434 -3.3089287 -0.70930076 6.6836181
2.8669331 -3.2632005 -0.70042235 7.3278389
3.0140626 -3.2569361 -0.71876138 10.428572
3.314086 -3.3128958 -0.72050238 14.680769
3.5022342 -3.3133407 -0.73628324 10.657143
5.1887641 -3.233676 -0.697321 4.75
6.9574146 -3.310977 -0.61549872 13.623306
7.01546 -3.2737281 -0.65353411 2.2437501
-1.0630945 -3.0847802 -0.69449943 6.8690481
0.37233943 -3.1029742 -0.71871287 3.1750753
0.49434134 -3.0959153 -0.73629957 3.0115941
0.70471531 -3.0928636 -0.73583931 2.849674
0.90594941 -3.0941753 -0.72798777 2.4940324
1.0889285 -3.1010187 -0.73166108 2.5973001
1.2740537 -3.1066995 -0.75288635 3.5648961
1.4185257 -3.091639 -0.73073196 1
2.3611727 -3.1230855 -0.71738315 7.0536857
2.4993727 -3.0794272 -0.71777862 9.1725731
2.6862302 -3.0735061 -0.71970809 8.74506
2.9119167 -3.0817204 -0.73249894 8.9719696
3.0728865 -3.0744624 -0.71696544 10.87704
3.2670195 -3.1494019 -0.71650904 10.122078
3.4184263 -3.1650989 -0.73223388 10.8
4.9503226 -3.0641446 -0.68977028 1.9375
5.1506867 -3.0671508 -0.64994377 1.189394
5.5958252 -3.0362501 -0.67666692 1
5.7474065 -3.0538926 -0.72012192 2.0454545
5.8155894 -3.0663271 -0.72021312 2.8888891
6.9703789 -3.14294 -0.61747593 23.796429
7.0207295 -3.0917509 -0.64358664 1.6904762
-1.063354 -2.8943655 -0.70571542 3.7870369
-0.94887757 -2.8910832 -0.74744719 3.347059
0.33856186 -2.9179952 -0.69446558 2.1712964
0.49342659 -2.9152567 -0.72405249 1.7472806
0.69553709 -2.9121287 -0.73216891 1.5519251
0.89978117 -2.9041419 -0.73945951 1.6658928
1.1004323 -2.9263315 -0.73691094 1.8730733
1.256462 -2.896287 -0.73726994 2.2962964
2.1920769 -2.8514903 -0.72089261 4.8333335
2.3533125 -2.9623957 -0.71054125 5.583333
2.521384 -2.8998363 -0.72046918 7.5436273
2.7071221 -2.9071815 -0.72043109 10.763362
2.8777065 -2.883862 -0.72585779 13.768634
3.0476325 -2.9157078 -0.74398327 20.341667
4.9094734 -2.8248539 -0.78288746 1
5.0554881 -2.873209 -0.62965554 3.3081632
5.3020334 -2.8444338 -0.64957333 1.4166666
5.5061274 -2.8767323 -0.69032854 1.212963
5.6784458 -2.9174297 -0.719055 2.3986113
5.9266534 -2.8800313 -0.73521352 1.8333334
6.111165 -2.843858 -0.73751438 2.9392858
6.7691264 -2.8926077 -0.67304808 19.583334
6.9438467 -2.9209039 -0.6219905 17.418518
7.0205483 -2.9035177 -0.64022958 2.2916667
-1.0398879 -2.7427874 -0.67914116 1.375
-0.96377444 -2.7391708 -0.68312865 2.125
0.35138923 -2.6964371 -0.67645121 2.2987137
0.49901178 -2.7129722 -0.72171575 1.9835117
0.69593877 -2.6950858 -0.72512937 1.8663961
0.90104556 -2.6913528 -0.72440374 1.7890254
1.0427352 -2.6981182 -0.73555183 1.75
1.2338291 -2.7302225 -0.75222224 1.2222222
1.9549181 -2.6414227 -0.7121498 8.9200001
2.1197331 -2.6707733 -0.7155714 8.4320364
2.2876344 -2.7017136 -0.73069769 8.19907
2.4655991 -2.713336 -0.72281665 8.2250004
2.7052991 -2.7181406 -0.72127604 8.7950354
2.8521743 -2.7332263 -0.72933221 16.6709
4.4762979 -2.6411116 -0.73841816 1.7277777
4.708621 -2.6772027 -0.71465832 1.51
4.9508619 -2.7228096 -0.6653375 13.263393
5.0580196 -2.7530258 -0.63677621 8.1571426
5.2438703 -2.690239 -0.69622427 2.8333333
5.5259032 -2.6979487 -0.68820691 5.1063414
5.6795654 -2.6621377 -0.69996637 5.7746029
5.9193797 -2.698246 -0.72277081 2.2976189
6.1139545 -2.7069547 -0.73380315 2.0896628
6.3222294 -2.631721 -0.75778919 2.6166666
6.4655662 -2.6273201 -0.6897006 6.5
-0.85427892 -2.4496343 -0.65213853 8.0930595
-0.78779757 -2.4173951 -0.67209184 12.25
-0.52895606 -2.4300961 -0.62170416 6.4196429
-0.32774016 -2.4127195 -0.6296379 13.287879
-0.08376687 -2.4217241 -0.63541573 11.844444
0.10814724 -2.414036 -0.61210042 13.2
0.30049154 -2.4912021 -0.63412374 3.6313155
0.55566728 -2.5467968 -0.72071153 1.031746
0.6846782 -2.5748112 -0.72529268 1.4059999
0.9128927 -2.5251329 -0.71373153 1.5796007
1.1077821 -2.5247905 -0.7068134 2.0625
1.2103194 -2.5976379 -0.71398419 1
1.8931692 -2.503593 -0.69884098 9
2.133568 -2.5071025 -0.72457165 7.8456674
2.2950184 -2.4960744 -0.71834868 13.673516
2.4834139 -2.478847 -0.71753871 9.3417721
2.6418169 -2.4504294 -0.6587525 3.4587114
3.8603983 -2.5097489 -0.74110806 1
4.1741529 -2.4368382 -0.71073925 2
4.3287349 -2.5418823 -0.72059482 1.25
4.4998789 -2.4981163 -0.72883028 2.9531746
4.6764822 -2.5210805 -0.7220341 1.2952381
5.0787826 -2.4730778 -0.68510032 4.1111112
5.2907338 -2.4420567 -0.71548843 2.3333333
5.5254135 -2.5511789 -0.71090555 5.8000002
5.6966777 -2.4532697 -0.72370344 6.2222219
5.8991842 -2.4548426 -0.71493143 6.1880951
6.1200585 -2.4904213 -0.72734994 3.3382354
6.2919426 -2.5347588 -0.74361658 1.6383458
6.4313955 -2.5490956 -0.71214867 9.5
-1.0101634 -2.2412186 -0.63671154 31.416237
-0.90336561 -2.2941039 -0.6445955 19.986883
-0.7071889 -2.3547041 -0.64000326 11.719732
-0.49624375 -2.3526087 -0.62797207 11.823934
-0.3030268 -2.3678303 -0.62536395 12.891088
-0.11574837 -2.3651013 -0.61304873 15.29133
0.071351394 -2.3709118 -0.61359388 12.000536
0.21114154 -2.3783855 -0.64647478 15.825
0.79304647 -2.3096209 -0.7001965 1.1666666
0.90980685 -2.3071437 -0.64667308 1.3
1.0926759 -2.248003 -0.63875723 15.773346
1.7484959 -2.2560728 -0.6562956 24.166666
1.907686 -2.2804792 -0.72076494 8.8014383
2.0760188 -2.307622 -0.72358495 7.7845049
2.3141847 -2.3159919 -0.72623181 8.1176682
2.4969108 -2.3202116 -0.70597893 8.3216829
2.6782241 -2.2949803 -0.66172802 14.783117
3.595058 -2.2378545 -0.75496477 2
3.7215865 -2.3085449 -0.7047382 1
3.8762708 -2.3153272 -0.68025517 1.2023809
4.3476658 -2.2921667 -0.72103989 3.8021164
4.5202165 -2.2928355 -0.71794194 13.352294
4.6913266 -2.2464485 -0.73275274 2.23176
4.8763824 -2.2817361 -0.68889672 1.6944443
5.0406103 -2.2072921 -0.72515363 1.2
5.3011103 -2.283658 -0.70320624 4.4285712
5.5173483 -2.2765958 -0.70809954 4.541667
5.6961761 -2.33635 -0.72441459 2.0625
5.8973532 -2.3075404 -0.71872848 2.0166667
6.1178913 -2.3073292 -0.72255337 2.8505492
6.3305225 -2.2969539 -0.71983296 3.632828
6.4772367 -2.2720339 -0.72579247 2.6354167
-1.0224768 -2.0931704 -0.63520819 23.763029
-0.99334115 -2.1614373 -0.61768299 25
-0.4744612 -2.1020718 -0.61638838 4.3701301
0.79881608 -2.0023317 -0.6202724 3.4000001
0.87539029 -2.0999582 -0.61376441 8.7819586
1.1123387 -2.1421089 -0.63656569 44.862942
1.2878343 -2.1130044 -0.62420267 48.846573
1.461014 -2.1335924 -0.62604529 47.802708
1.6685485 -2.1016114 -0.64867121 34.725697
1.8988365 -2.1169658 -0.71251589 16.913174
2.1033828 -2.105463 -0.72176427 9.6269245
2.2594821 -2.0821126 -0.72438693 8.5244846
2.4947498 -2.1046302 -0.72645158 8.3404322
2.7180798 -2.0924315 -0.66598815 25.071039
2.8129985 -2.0755072 -0.66387558 3.6666667
3.4759026 -2.1112113 -0.65131152 14.765715
3.7104783 -2.0721421 -0.71163017 4.1157188
3.9133911 -2.0798116 -0.6989885 2.7830687
4.0620313 -2.0879862 -0.72328514 1.9737554
4.2893643 -2.0958838 -0.73535055 1.7357143
4.5389938 -2.0633047 -0.70731586 26.070831
4.7028375 -2.0914969 -0.73575276 7.273838
4.8710985 -2.1020141 -0.72428548 2.8793705
5.0539885 -2.1075206 -0.67032939 3.1047618
5.2557764 -2.1202035 -0.69041723 1.8333334
5.4464478 -2.1105978 -0.73489213 3.1904762
5.6953559 -2.096529 -0.73903543 2.3888891
5.9002094 -2.0848882 -0.7260226 3.2874999
6.1514764 -2.0850742 -0.72803074 2.3902779
6.2915478 -2.1190608 -0.73943931 1.9381834
6.4586825 -2.0928872 -0.73197001 5.3869042
-1.0426539 -1.9088473 -0.62991464 31.022755
-0.90979201 -1.8834286 -0.70962042 4.1111112
-0.45856044 -1.9488132 -0.61466998 33
0.87644821 -1.8853534 -0.60609734 16
1.1231664 -1.920228 -0.61140114 12
1.315792 -1.9104508 -0.61817831 27.907171
1.490275 -1.8612245 -0.61968219 18.167513
1.6815424 -1.9394437 -0.67686307 6.2214284
1.8913769 -1.8709128 -0.71879727 8.6646967
2.1148498 -1.9152318 -0.72466516 8.3733912
2.3103652 -1.9089516 -0.72606826 9.4137096
2.4655237 -1.8723733 -0.72880989 6.6212635
2.7321098 -1.894744 -0.65230292 32.032314
3.1992106 -1.8977797 -0.73880208 1
3.310885 -1.8244265 -0.7286793 1
3.5388987 -1.9031758 -0.70155001 4.2448068
3.6957455 -1.9049693 -0.71674454 7.4139247
3.8977115 -1.8943416 -0.7063759 2.7502203
4.1024327 -1.8864633 -0.72141117 2.4611723
4.2702241 -1.8513825 -0.74152398 1.4166667
4.5158482 -1.8927556 -0.72917986 2
4.7139859 -1.8980527 -0.73112845 8.5166664
4.9021049 -1.9028879 -0.73787814 3.2544215
5.1018057 -1.8696457 -0.73226023 2.7301588
5.3022428 -1.8992077 -0.6880098 1
5.4989018 -1.8254124 -0.732737 1
5.7471399 -1.867173 -0.73336649 3.3136363
5.9795098 -1.9584706 -0.73982203 3
6.1057539 -1.9242735 -0.73335177 2.875
6.2904882 -1.9181885 -0.75000393 1.9591837
6.4883714 -1.9729722 -0.71405333 1
6.9629474 -1.9629084 -0.61819482 1
-1.0468394 -1.7132835 -0.62405515 30.117161
-0.91440231 -1.7673942 -0.69883645 9.9333334
1.1376879 -1.7281262 -0.6898182 4
1.3591315 -1.6832113 -0.62601489 32.666668
1.4808608 -1.7314258 -0.64294201 18.167353
1.6800343 -1.6349894 -0.71204168 9.181818
1.9360449 -1.7279171 -0.71187723 9.7916698
2.0811765 -1.6806816 -0.72588247 9.0639191
2.3117049 -1.7111173 -0.72245193 8.5396452
2.4892633 -1.6931274 -0.72659892 7.9448853
2.733197 -1.6867309 -0.67005569 15.450828
2.8488646 -1.6318556 -0.67173904 4.0234585
3.1196842 -1.667125 -0.72995311 2.1671772
3.2688961 -1.6793101 -0.72508919 1.9104135
3.5111473 -1.6983238 -0.72634858 2.2061834
3.7115064 -1.7412243 -0.69020379 6.4794874
3.898916 -1.6939284 -0.74202091 4.4507308
4.100256 -1.6745868 -0.71606433 3.4393845
4.313798 -1.694585 -0.71659261 1.9954649
4.5259056 -1.6956644 -0.72885871 2.6222222
4.7160463 -1.699021 -0.73604745 3.4227271
4.8457594 -1.6838663 -0.75044066 2.6117318
5.1040707 -1.7147688 -0.72756463 2.9411376
5.2708702 -1.7711711 -0.70640641 1
5.4754748 -1.6591151 -0.71340084 1.4166667
5.740499 -1.6520691 -0.7121622 3.3333333
5.8285871 -1.6749331 -0.75262046 3.375
-1.0636953 -1.5134225 -0.62082928 28.830954
1.079675 -1.5059433 -0.62951803 13.577778
1.5104675 -1.5947984 -0.66501421 6.9166665
1.7267786 -1.5362374 -0.71317571 5.928205
1.9464303 -1.5173916 -0.73855686 3.4686611
2.1076119 -1.4807237 -0.72324854 7.708981
2.2759466 -1.5088897 -0.7304486 8.0673075
2.5293231 -1.519489 -0.71868098 9.100379
2.7022789 -1.4926661 -0.70999253 9.0126514
2.8625269 -1.5666475 -0.66713679 2.2590399
3.0996122 -1.5099913 -0.73221761 2.0486348
3.2920337 -1.4977366 -0.73123854 3.701874
3.4887772 -1.4841681 -0.73472416 2.9615078
3.6957605 -1.503294 -0.72349262 2.6826909
3.8761809 -1.4730594 -0.7125057 2.0862958
4.0860257 -1.538959 -0.70007849 1.8532052
4.2933998 -1.4989612 -0.7291401 4.0417027
4.4319711 -1.4821057 -0.75845706 4.5
4.7291327 -1.558955 -0.73252565 2.7028573
4.8577223 -1.537105 -0.73997754 1.9642857
5.4407835 -1.5577685 -0.69416821 2.5
5.7682652 -1.5480869 -0.71263415 2
-0.98257434 -1.3068666 -0.68435025 10.333334
1.9646623 -1.3224934 -0.69994408 8.8888893
2.1347671 -1.3106852 -0.71699405 8.4351902
2.311058 -1.2931793 -0.72438842 8.6740923
2.5342917 -1.3395255 -0.71827096 9.7537966
2.7201283 -1.287143 -0.72490263 7.7314396
2.8726592 -1.2961791 -0.72047269 4.2735825
3.1291251 -1.310991 -0.73018312 2.1017628
3.275707 -1.3008162 -0.73885846 3.6467643
3.4702716 -1.2980511 -0.73222405 3.9177089
3.697881 -1.2941846 -0.73084831 2.4086127
3.9286106 -1.308005 -0.73797691 2.9806521
4.1042318 -1.3169684 -0.71969754 1.6875
4.246408 -1.2948221 -0.71347445 5.0729165
4.4392395 -1.3963634 -0.7566244 3.3333333
4.8988671 -1.3517814 -0.75992906 2
-1.0554986 -1.1415774 -0.60420579 8.181818
-0.88584185 -1.1151792 -0.65789437 15.354167
2.1981277 -1.1867107 -0.70299006 9.25
2.3341827 -1.1313771 -0.72326076 8.3866529
2.4930565 -1.0839509 -0.72130859 8.6714983
2.7514019 -1.107331 -0.72398192 6.2966681
2.8680441 -1.1125597 -0.73220623 4.4707413
3.0663104 -1.0848721 -0.72440881 2.2080896
3.2949667 -1.1070535 -0.73035753 2.1220539
3.4598472 -1.1215206 -0.74167061 4.1522727
3.6907434 -1.1790428 -0.73623043 2
-0.93730736 -0.92796803 -0.6517365 2.2592592
-0.74311507 -0.97402573 -0.63145852 8
2.3960786 -0.91276491 -0.72458184 5.1999998
2.5028052 -0.92213106 -0.73362333 6.7273684
2.7551863 -0.92736691 -0.70937759 7.4850044
2.8424652 -0.91385257 -0.72155887 6.5404692
3.127527 -0.95759922 -0.71382195 2.1666667
3.2754586 -0.93122965 -0.73496425 2.25
-1.0476435 -0.7317493 -0.62794232 5.6331167
2.3249195 -0.62367475 -0.64627445 4.0999999
2.4973893 -0.7224623 -0.63728213 11.393473
2.6926043 -0.69808948 -0.70087361 5.7857141
2.8481576 -0.62134576 -0.63196588 18.166666
3.098032 -0.78543341 -0.68150109 2
2.3029695 -0.51282883 -0.66229069 13.40228
2.5390501 -0.4421778 -0.62968642 9.7256403
2.6732547 -0.48671603 -0.65220517 8.79
2.8991187 -0.51826787 -0.63200319 15.891666
2.3437047 -0.24502335 -0.61447179 1.6666666
2.4879999 -0.32915434 -0.62314248 8.7406473
2.7039547 -0.21989067 -0.65447652 24.680954
2.8830936 -0.23268069 -0.64727139 20.36886
2.2382109 -0.086518489 -0.65647298 1.3660715
2.4987729 -0.034397304 -0.62347656 8.0959187
2.6458199 -0.1509072 -0.63719416 11.551608
2.9135606 -0.17379768 -0.62099057 18.43611
6.4672856 -0.0090462454 -0.71972543 24.875
2.2712774 0.054454684 -0.65497273 6.265873
2.5644803 0.051300846 -0.65498841 1.390625
2.685298 0.079780668 -0.64461637 10.562285
2.8990736 0.089722246 -0.65612769 9.0806875
3.0775416 0.15797916 -0.72457397 4.1950774
3.3022697 0.15621729 -0.71844643 1.5549554
3.5125198 0.17245381 -0.74682724 1.9642857
3.7080581 0.18303047 -0.75162059 2.1002331
3.906065 0.15795825 -0.71442074 4.0198412
4.1217866 0.13376689 -0.7478742 1.5
4.3171458 0.13923813 -0.75376707 1.5857143
4.5014482 0.14064012 -0.75632715 3.2268517
4.6870818 0.10847555 -0.6768381 1.9375
4.9247203 0.18882737 -0.76774311 2
5.3138008 0.12724963 -0.75112724 1
5.4592528 0.11552855 -0.77230006 1.6
6.5112395 0.031499401 -0.72836202 19.166666
7.0691819 0.19228023 -0.71908808 6.6666665
2.0816371 0.33278099 -0.63073063 15.2
2.2878039 0.30960098 -0.6410808 6.4166665
2.5134227 0.27868465 -0.62900907 13.894047
2.7120838 0.28238386 -0.66748023 3.5416665
2.9109251 0.28453162 -0.7041564 2.9897437
3.0729313 0.2506963 -0.73822987 2.0748737
3.3259087 0.30956692 -0.73317999 1.7965698
3.5018656 0.28532881 -0.74526149 2.1463637
3.6920447 0.27085263 -0.74992335 2.3658333
3.8933952 0.31707779 -0.75017476 3.0945354
4.1625323 0.34369269 -0.7544477 4.3425927
4.2849174 0.30414885 -0.76047087 3.4591503
4.5227237 0.32822126 -0.72628629 4.8978481
4.6170845 0.35288274 -0.72172737 4.8271608
4.9123755 0.26562276 -0.76706755 2.75
5.1185474 0.32253611 -0.72392452 2.575
5.2494931 0.32651758 -0.74045712 2.25
5.5077381 0.34682801 -0.6837545 9.1620369
5.6109848 0.36163184 -0.62913644 3
6.5359488 0.39834327 -0.76362658 2
6.9325972 0.31566796 -0.74070877 2
7.0798011 0.34547082 -0.68076974 6.0138888
2.1149247 0.52317691 -0.63827044 38.547958
3.3069549 0.40885445 -0.72837478 1.5
3.6967955 0.48483902 -0.71589875 1.125
3.8558125 0.44624057 -0.74693847 2.2671127
4.1509581 0.42959192 -0.76061773 5.25
4.3515277 0.4631125 -0.75037199 3.21875
4.5330524 0.50313425 -0.72397447 9.1581774
4.6346049 0.42640221 -0.65896225 15.921295
4.8519983 0.42227691 -0.66913337 2.4000001
5.1051621 0.4525812 -0.74058443 1.4166666
5.3402033 0.47833237 -0.73503172 2.1428571
5.5056581 0.41686863 -0.68086684 8.0749998
6.1875992 0.49696845 -0.75245529 1
6.2634635 0.4821687 -0.76135194 2
6.5394278 0.50023806 -0.75535458 1.2
6.6792264 0.50965083 -0.74491322 1.7407407
6.9629593 0.51283514 -0.71097773 4.3333335
7.0680494 0.52517176 -0.65868998 8.760417
2.1205885 0.7057631 -0.64973027 41.766323
2.3200049 0.78821194 -0.72557205 14.25
3.3911943 0.73365951 -0.72071552 2
3.4457095 0.72718847 -0.73591375 2.5
3.8842068 0.67237759 -0.73874384 2
4.3407397 0.63220215 -0.72918057 3.7
4.5141387 0.64053869 -0.72426933 5.2750001
4.6254964 0.69121289 -0.63983989 24.166666
4.8089361 0.67297375 -0.66460592 3
5.1720634 0.61046898 -0.71763396 1
5.3200922 0.68864548 -0.73115838 2.8214285
5.5037127 0.6663897 -0.67207181 10.405555
5.6136479 0.70365667 -0.61155015 5.6666665
6.3062949 0.61744624 -0.76917237 3
6.563899 0.6885165 -0.74257183 2.45
6.6617365 0.71206719 -0.74922216 4.7142859
6.8923006 0.69471121 -0.75630283 1.4714286
7.1052704 0.67824429 -0.62251586 9.4444447
2.1352627 0.82632923 -0.62817472 36.427082
2.2948618 0.89136231 -0.72754854 4.2019229
5.2968144 0.90229428 -0.76231712 2
6.538362 0.95240271 -0.7270664 2
6.7748938 0.99328232 -0.7703377 3
6.9068661 0.90868551 -0.75742793 1.8333334
7.120007 0.83492917 -0.61713469 1.5
1.7226399 1.183192 -0.6186766 25.48155
1.9725246 1.1727933 -0.62259179 27.40909
2.120821 1.1665541 -0.61696512 34.66288
2.3026841 1.1304394 -0.66056067 21.720156
2.4960363 1.1584178 -0.6388436 16.660076
2.7369905 1.1298444 -0.66894752 25.095545
2.8238602 1.1690497 -0.68347174 10.813568
6.8806958 1.0514406 -0.76405191 2.1333334
1.8895882 1.2274591 -0.63630944 3.875
2.1278901 1.2743995 -0.70540404 6.6819067
2.3089681 1.2381549 -0.70963258 9.5846338
2.5018044 1.242519 -0.70877504 7.0265059
2.7278733 1.2524753 -0.68490881 13.926519
2.816664 1.2786207 -0.68893331 14.694923
6.454061 1.204381 -0.72600251 2
6.7293735 1.2651713 -0.77409637 2
-0.82044286 1.7970406 -0.63899505 20
-0.77374268 1.777022 -0.63084763 21.277777
1.342898 1.6327375 -0.6068421 1
1.4189842 1.7341664 -0.66066402 1
-0.85650617 1.8401715 -0.63854879 27.444443
-0.77677494 1.8397301 -0.65789419 14
1.3850369 1.8094621 -0.64337909 1
1.4667892 1.8513155 -0.69269085 3.4761906
-0.075540848 2.1507242 -0.63032019 22.678026
0.044810977 2.0932581 -0.62322682 16.496473
1.347764 2.1460118 -0.75536549 7.363636
1.5232562 2.1041169 -0.7476176 7.9902864
-0.33068511 2.3478878 -0.70490199 12.708333
-0.13662893 2.2934096 -0.61759168 10.479116
0.065264091 2.3082199 -0.6450606 2.5
0.86829406 2.3842516 -0.75382447 10
1.1196102 2.3367209 -0.73383832 8.3667831
1.2956946 2.2891114 -0.67560542 9.0531063
1.4485641 2.278177 -0.6694901 8.1078339
1.6641216 2.3805218 -0.75958508 2.7048612
-0.98060417 2.5959232 -0.61635929 75.400002
-0.45692936 2.4979362 -0.68330222 19.369125
-0.28180727 2.5224218 -0.66580743 21.711891
-0.16209134 2.4615691 -0.61792272 6.4936113
0.10278585 2.5027134 -0.71634948 13.878496
0.26246971 2.5536246 -0.7440123 9.8692856
0.48724073 2.5566041 -0.74860573 8.2390318
0.717318 2.5262222 -0.74770004 8.9000502
0.91155934 2.4997001 -0.74888176 9.5377092
1.0954514 2.4829748 -0.75320649 9.0476475
1.2699234 2.4968579 -0.67870051 25.373976
1.5628234 2.4666402 -0.74628466 4.6333337
1.709941 2.5028474 -0.76046258 10.326031
1.8606927 2.5045409 -0.75676441 9.841857
-0.97859251 2.7531881 -0.6573199 43.497898
-0.52399015 2.7220476 -0.6423502 11.447866
-0.33591259 2.7270541 -0.63338816 10.703632
-0.059324697 2.6702387 -0.6214022 8.4208326
0.084817804 2.7044659 -0.74391931 11.948088
0.29769564 2.7113621 -0.76452065 7.1241546
0.50467211 2.7233851 -0.76747352 8.0201178
0.68423188 2.7150843 -0.7661711 9.3210306
0.90450931 2.710418 -0.76587039 9.343133
1.101301 2.7112844 -0.77151942 8.5751629
1.2784963 2.7130604 -0.75277185 8.0945568
1.7111875 2.6808264 -0.75498497 13.3661
1.844754 2.718147 -0.75830001 9.2202616
2.0754936 2.7528729 -0.74309003 11
-0.9482426 2.9132333 -0.65001214 13.678717
-0.50167 2.8336756 -0.6385197 16.756973
-0.3121703 2.8480482 -0.64667988 24.637098
-0.12859482 2.85484 -0.64597899 20.431002
0.15437643 2.9155781 -0.71222109 9.940053
0.276885 2.9132063 -0.7335791 10.274308
0.47780043 2.9163752 -0.76474804 9.2192907
0.68698972 2.9121773 -0.76617408 8.3018465
0.89780229 2.9014709 -0.7659474 7.4849925
1.0830569 2.9203649 -0.76308149 10.625325
1.2950866 2.9101467 -0.76187384 13.829812
1.4109535 2.9420204 -0.76719731 9.8249998
1.7362593 2.914552 -0.76784843 7.972321
1.8965477 2.882849 -0.76584858 6.6685524
2.0817304 2.9041219 -0.75860012 10.064311
2.263808 2.9080606 -0.76306796 9.9464283
-0.94186288 3.1336105 -0.6760214 16.066088
-0.71879542 3.0916631 -0.67091709 30.376472
-0.47253984 3.1832569 -0.64468324 5.8249998
-0.3516019 3.0241568 -0.62727571 51
-0.031629462 3.1202259 -0.77553517 9.685606
0.11155721 3.0846841 -0.71114624 26.307577
0.31005993 3.0976398 -0.73020452 12.965287
0.51483279 3.1014287 -0.75964922 12.529538
0.68413806 3.0997467 -0.76536697 10.058813
0.89659411 3.0975347 -0.77312154 10.058926
1.0777105 3.0844176 -0.77026534 14.760503
1.3071618 3.0983775 -0.77468693 9.5136452
1.486817 3.1665404 -0.77489954 8.6167336
1.7335393 3.0671897 -0.77210104 6.625
1.9316528 3.121918 -0.75913858 8.8970585
2.0848129 3.0990579 -0.76295114 8.7581778
2.2800963 3.0705001 -0.76246881 9.1674242
2.4727278 3.1304655 -0.67672879 23.035986
-1.0074899 3.3941989 -0.74169075 2
-0.94978046 3.3167017 -0.6597743 21.83816
-0.68228006 3.3221014 -0.64427298 20.918764
-0.47988752 3.2870615 -0.6546995 13.944206
-0.37195081 3.3677852 -0.74654239 40
-0.087368533 3.3269928 -0.76328248 10.221191
0.13797079 3.3168964 -0.71405047 20.053534
0.28558403 3.2777491 -0.70135128 24.858147
0.46533427 3.341368 -0.70993048 7.6486526
0.708359 3.2723272 -0.75683331 9.1683121
0.88515258 3.2958732 -0.78045464 10.145926
1.0989864 3.306473 -0.77774101 8.9148302
1.3075615 3.2975113 -0.7663874 8.6788397
1.5092623 3.3093727 -0.76193917 8.7153921
1.6818833 3.295188 -0.76190531 11.508983
1.9244788 3.2519777 -0.77202678 11.364118
2.0908267 3.2967668 -0.77865219 8.3531923
2.2845769 3.3338075 -0.77153569 6.5773745
2.4661968 3.3386486 -0.70987922 16.397509
-0.94900852 3.4530869 -0.68662578 22.300926
-0.70849985 3.4974806 -0.73586756 9.0677776
-0.42910677 3.4904895 -0.66892505 16.672333
-0.38628519 3.4931514 -0.72106379 15.453119
-0.026066391 3.5177433 -0.71437591 26.171946
0.048807736 3.4592223 -0.68698496 33.233547
0.39737159 3.4299936 -0.79921955 18
0.51014948 3.4801219 -0.70509785 10.866138
0.6929915 3.496367 -0.74115497 13.174941
0.91593605 3.5138535 -0.76495165 9.8841505
1.1154752 3.4869411 -0.76670808 8.8524437
1.3155669 3.4837637 -0.7741583 8.1492081
1.5021659 3.4534767 -0.77468687 8.0696049
1.6705067 3.5120938 -0.77483946 9.8982687
1.9086655 3.5135529 -0.77390546 8.6876984
2.1243908 3.5249097 -0.77843505 10.228052
2.295032 3.4974952 -0.77994895 8.0112743
2.4739027 3.4837289 -0.74124926 13.060671
2.6771088 3.5131433 -0.755436 15.046429
-0.85704327 3.6958873 -0.76244086 4.3000002
-0.69469458 3.6844764 -0.76527905 9.1729441
-0.47184592 3.7127142 -0.6706025 11.605807
-0.36641136 3.7081254 -0.72159344 11.815303
-0.097015359 3.7161677 -0.7562561 12.645948
0.53375024 3.6325688 -0.68640125 17.275
0.6814996 3.6850886 -0.74977851 13.34119
0.8741892 3.7023337 -0.76736069 9.6182652
1.1000162 3.7075417 -0.77492666 9.6741476
1.2731017 3.7147696 -0.77883178 8.5408735
1.4891326 3.7081304 -0.78094637 8.5130873
1.6950557 3.7094455 -0.78010756 9.5255842
1.9259918 3.6626198 -0.77740872 8.6085033
2.0974855 3.630831 -0.78061301 10.055556
2.3428743 3.6863699 -0.69679266 40.860348
2.5115447 3.6841018 -0.72572809 14.828009
2.7121813 3.6773629 -0.67852151 26.701529
2.8162754 3.6482725 -0.64650524 30
-0.88365817 3.8978548 -0.77215344 6.393939
-0.69852746 3.9136908 -0.78057778 9.238493
-0.45560464 3.8816965 -0.66764927 10.23792
-0.32439721 3.8995278 -0.74684519 11.724128
-0.080766484 3.9416554 -0.71073109 55.741581
0.56456286 3.9170041 -0.68792373 67.547974
0.6985656 3.9225953 -0.6974442 76.136543
0.86990595 3.9131358 -0.71205574 65.42804
1.0965791 3.87483 -0.77771956 8.8147907
1.3006742 3.8658593 -0.77627528 9.3695431
1.5100045 3.886641 -0.77870339 10.226731
1.7172376 3.9125242 -0.7742365 9.0858345
1.8778737 3.8988853 -0.7719478 6.7583337
2.0951035 3.9447839 -0.76019144 7.3047624
2.3236823 3.8966413 -0.68804568 29.509659
2.4507098 3.9253147 -0.72020072 9.5185194
2.6845732 3.8941524 -0.69348627 2
-0.86150438 4.0540209 -0.74296486 4
-0.79600424 4.0806856 -0.74399185 8.5
-0.43672228 4.1416516 -0.6874283 3.3333333
-0.30965662 4.0671749 -0.76894492 8.209199
-0.15202069 4.1104069 -0.77819699 10.630102
0.95915306 4.0673437 -0.7764371 3.4583333
1.08184 4.1359 -0.77364463 8.1616497
1.3028159 4.1313119 -0.7754243 8.8775587
1.4991319 4.1004066 -0.76596659 9.8224697
1.7000006 4.0759301 -0.77297944 8.0126104
1.908031 4.0992188 -0.76237994 8.1192217
2.1066806 4.0734572 -0.77058131 8.8006277
2.3234444 4.0875382 -0.65006047 43.82201
2.4460187 4.078373 -0.70730239 11.876758
2.7266831 4.0949917 -0.75284016 10
2.9058874 4.1713438 -0.74329042 4.6428571
-0.42846051 4.3148885 -0.71978009 3.0690475
-0.32823297 4.3114223 -0.74963713 6.0446429
-0.15285517 4.3078694 -0.76219589 7.6666665
0.9863221 4.2816644 -0.7455017 2
1.0850136 4.272397 -0.75812429 8.0145998
1.3057706 4.2848196 -0.75778037 9.0536308
1.4952241 4.3015199 -0.76656574 9.8374262
1.6905138 4.2979589 -0.77771068 9.692852
1.8447437 4.2665567 -0.77940035 9.633235
2.1174865 4.325531 -0.78699917 10.546875
2.305644 4.2960925 -0.6566214 36.349155
2.4730539 4.2712612 -0.68388534 13.205556
2.6766579 4.3641057 -0.65705299 2.6666667
2.8658228 4.3147278 -0.76692563 12.886952
3.0542409 4.2979059 -0.73743123 2.125
-0.45810619 4.4867473 -0.73392212 3.9814818
-0.30782863 4.4829059 -0.76752472 11.660268
-0.14117189 4.4972496 -0.77020979 9.666667
0.99006397 4.5436578 -0.77587146 1.6666666
1.098358 4.5087652 -0.77497292 4.916976
1.2491959 4.496139 -0.7827881 9.1100397
1.4676329 4.497262 -0.78535324 9.6750002
1.6995871 4.5230632 -0.78573442 10.243651
1.9041225 4.4847646 -0.78268027 10.136141
2.0883825 4.4646063 -0.77768439 10.34375
2.3279338 4.5107727 -0.67161351 24.739935
2.5091364 4.5158324 -0.6873737 7.3024783
2.6597605 4.5582757 -0.66117644 7.3666668
2.8982942 4.4714894 -0.73934573 1.6666666
3.093689 4.5075536 -0.74314612 2.8666668
3.2435718 4.5573578 -0.7400853 1.375
-0.44794586 4.6856165 -0.76150942 8.650794
-0.3346065 4.7048974 -0.78068805 8.1590281
-0.13423873 4.6214709 -0.76045436 11.388889
1.1445175 4.7236409 -0.74488431 4.1541667
1.3022188 4.7718644 -0.69437653 6.6271682
1.4498665 4.7506094 -0.73238415 14.714117
1.6936584 4.6872282 -0.78233695 10.498878
1.8937138 4.689054 -0.77737057 8.9614105
2.095505 4.6637363 -0.77368277 10.006944
2.3341258 4.6960816 -0.67096967 23.171505
2.481627 4.6823621 -0.68345279 9.5178633
2.6814964 4.6814661 -0.72945946 8.0093746
3.1730185 4.681282 -0.75115347 2.5476191
3.2827079 4.7077603 -0.75558752 1.75
3.437819 4.7211018 -0.78000712 1.5
-0.46949396 4.8424911 -0.74715233 2.2222223
-0.29342565 4.8601422 -0.75644141 1.4809705
-0.11247842 4.8613858 -0.78413671 2.25
1.1294924 4.8313456 -0.69861603 1.9024224
1.2901947 4.8101802 -0.67581832 4.7122841
1.5172528 4.8699932 -0.68637133 8.8849964
1.6597933 4.9531012 -0.76496822 12.620237
1.9102092 4.9061594 -0.78083241 8.5630951
2.1005173 4.8793464 -0.78617305 8.2312613
2.3423467 4.9054899 -0.67891347 30.166723
2.5028205 4.9123826 -0.68661433 9.0016298
2.7239249 4.8962836 -0.73392332 8.6715164
2.8026977 4.8232179 -0.63135874 6.625
1.5898556 5.0435233 -0.67388433 11.291667
1.6412547 5.0580845 -0.70576596 12.61839
1.8091717 5.0442371 -0.79523814 8.363636
2.073653 5.1384959 -0.75384265 7.1857142
2.339462 5.1006346 -0.6813516 25.61203
2.5093317 5.1282048 -0.71290517 13.387892
2.7062724 5.132102 -0.76805371 9.0767469
2.8244877 5.1096439 -0.77164441 5.8333335
1.7508135 5.2585788 -0.74880075 11
1.8989815 5.2785292 -0.74653763 8.2388802
2.11692 5.2970319 -0.75527686 9.4769011
2.3309002 5.302918 -0.71679008 15.612039
2.5045261 5.282464 -0.76234978 10.598296
2.6937914 5.2490664 -0.78696644 9.7805557
2.9280515 5.3597746 -0.60072953 1
3.9187272 5.2425423 -0.63693297 19.805883
4.0545063 5.227632 -0.64895391 2
1.7973437 5.4752951 -0.76374751 13.5
1.8861116 5.5063119 -0.76016468 24.887697
2.0783927 5.4587383 -0.77500814 10.816667
2.3454401 5.5424919 -0.73443544 41.554993
2.4584363 5.5279565 -0.76689339 23.851387
2.6743062 5.476902 -0.72207505 12.322223
2.8339267 5.5073786 -0.64937031 30.666666
3.0727654 5.5601249 -0.6068691 1
1.7704142 5.6538048 -0.71323079 34.25
1.8958442 5.6714926 -0.73713839 27.59273
2.091496 5.6688828 -0.73969442 22.174927
2.3060594 5.6477723 -0.74313045 27.409981
2.5011497 5.6557908 -0.74752367 15.649055
2.6481712 5.65622 -0.78228945 15.793219
2.8030951 5.6264319 -0.79829186 30
3.1677496 5.6641841 -0.61828738 31.770832
3.307312 5.6696029 -0.63195056 18.965851
3.4875352 5.676043 -0.64202023 15.531329
3.6101799 5.6682553 -0.6666491 22
3.3463359 -13.918203 -0.59439516 1
3.5559564 -13.852304 -0.59297305 1
3.6968918 -13.811495 -0.59225762 1
3.8993535 -13.725402 -0.59026557 1
4.1087189 -13.668472 -0.58970797 1
4.1846504 -13.580873 -0.58674824 1
4.3604231 -13.504819 -0.58533776 1.2
4.5492592 -13.470448 -0.58594096 1.1666667
3.1143177 -13.399439 -0.59724081 1
3.3173413 -13.344649 -0.59664631 1
3.4754076 -13.303897 -0.59635454 1
3.678916 -13.253575 -0.59623784 1
3.883518 -13.199968 -0.59612799 1
4.066473 -13.170137 -0.59694862 1
4.8984561 -11.421892 -0.53096414 1
4.9111199 -11.073067 -0.53200924 1
4.9316349 -10.461317 -0.50386643 7.2842593
5.0517011 -10.426094 -0.51574296 6.6944447
5.2458434 -10.434444 -0.50103551 2.6666667
4.9710736 -10.39381 -0.58129847 13.25
5.1618338 -10.343585 -0.48850688 4.8333335
5.2980642 -10.259298 -0.51031029 25.291666
5.4414868 -10.246476 -0.50249016 39.604164
6.3225379 -10.245264 -0.55377132 41.125
6.4144835 -10.208055 -0.5394184 35
5.4560595 -10.093268 -0.50892562 9.1428576
6.3615279 -10.090092 -0.54205394 29.473957
6.4896297 -10.021495 -0.53832692 40.312668
6.6462045 -10.014623 -0.54698384 29.32778
5.4422436 -9.8945837 -0.53489655 7.9444447
6.3639336 -9.980176 -0.55767989 55.5
6.510746 -9.9875307 -0.53798223 92.583336
6.709414 -9.9327927 -0.53727549 40.866665
6.8594856 -9.8620977 -0.54015642 42.552086
5.5094428 -9.734457 -0.52150673 32.14872
5.7079115 -9.723896 -0.52890313 25.671297
5.8500266 -9.709693 -0.52623445 22.940477
6.888649 -9.6850557 -0.5250591 69.338539
6.1301651 -9.4837828 -0.55433178 5.75
6.909626 -9.4736624 -0.51590925 36.996002
7.0262856 -9.4163933 -0.55317527 3
6.3430815 -9.2864389 -0.55136245 9
6.403656 -9.2348156 -0.55076957 10
6.9332604 -9.3913431 -0.53562301 23.833334
7.0055966 -9.3761673 -0.53478932 1
6.5063348 -9.1475487 -0.54982144 6.4000001
6.6232133 -9.0326548 -0.54819185 5.5
6.7210865 -8.9331541 -0.54680157 4
6.9123297 -8.8282452 -0.51929164 3
7.0006504 -8.8136282 -0.4927991 1
6.9555879 -8.6395988 -0.49842906 2.1666667
6.9773121 -8.5611954 -0.48906976 1.3125
7.0144825 -8.43713 -0.53557318 3.6666667
7.015614 -8.2612467 -0.52887803 1.5
7.0112109 -8.103097 -0.52275002 1
6.3448892 -7.9094982 -0.42772409 1.6666666
6.51157 -7.8747554 -0.44020209 1.6380953
6.6908693 -7.8420272 -0.44585952 1.2133334
6.8616467 -7.8337502 -0.43924594 1.0333333
6.8904891 -7.6670651 -0.44857338 43.468746
6.8868146 -7.5661845 -0.44502831 70.045456
6.6881399 -7.2524223 -0.42948708 28.67647
6.6936951 -7.111331 -0.42542133 31.637682
6.6874495 -6.9915738 -0.4258185 35
6.408319 -6.6159954 -0.40049851 60
6.3788042 -6.5253596 -0.4044494 40.847916
6.4046583 -6.4991961 -0.40895954 47.299999
6.38027 -6.3922029 -0.41238499 27
6.4608803 -6.2865467 -0.40600514 41.733334
6.6911216 -6.2379303 -0.4262974 38.416668
6.8160162 -6.2636724 -0.45980632 17.25
7.0084753 -6.2377515 -0.43108419 27
6.9840536 -6.1738501 -0.42868701 43
6.6569262 -5.8565755 -0.40923616 108
6.3001499 -5.6666679 -0.41602454 42.895832
6.5656624 -5.7398686 -0.40315711 30
6.3100486 -5.5368338 -0.41782641 43.950001
6.378046 -5.3929586 -0.43519706 1.5
5.5053587 -5.0758476 -0.58358914 16.666666
7.0038409 -4.9139376 -0.4292216 13
6.5582266 -4.6355686 -0.40283099 8.75
7.0123472 -4.6182079 -0.40123698 6.5
7.0495086 -4.416759 -0.40356794 17.75
4.359251 -4.3545589 -0.43320188 18
7.0321465 -4.2674599 -0.41988051 1.5
7.0394773 -4.1677146 -0.5293501 9.3599997
-1.1154498 -3.8934541 -0.49264693 11.980392
7.0195832 -3.8768013 -0.59269786 14.619048
-1.109215 -3.7001565 -0.49983358 9.8062496
6.9675913 -3.6245463 -0.58214158 9
7.0300417 -3.700423 -0.5879153 9.5450001
-1.1031396 -3.5232627 -0.46463054 4.9226189
6.929956 -3.4660468 -0.5577575 6.0520835
7.0185738 -3.5422387 -0.58618724 6.708333
-1.080615 -3.3207369 -0.49417323 6.166667
5.1776552 -3.2672997 -0.52369022 12.285714
5.3242698 -3.2226272 -0.47670326 1.4361111
6.9633079 -3.3020887 -0.54754859 21.365574
7.0124054 -3.317559 -0.40385497 7
-1.0829834 -3.0822911 -0.47243363 13.112069
5.1599641 -3.1150963 -0.49951586 10
5.328968 -3.129318 -0.4884018 2.8333335
5.4015279 -3.0112584 -0.48023367 1
6.4976892 -3.0821774 -0.59402049 2
6.9705491 -3.131912 -0.57088172 25.833241
7.0169287 -3.1071951 -0.40122628 1
-1.0732839 -2.8877707 -0.46444327 10.484649
5.0698791 -2.8757782 -0.56979811 7.1269836
5.3760152 -2.9243076 -0.4878456 6.2041664
5.4601326 -2.8934653 -0.49394935 1.85
6.5649085 -2.9773352 -0.59499848 2
6.7585845 -2.858058 -0.57823247 27.638887
6.9221864 -2.920872 -0.56607568 27.184668
7.0137787 -2.9260576 -0.45994219 7.8333335
-1.0617825 -2.7638524 -0.46128714 10.814394
-0.95272034 -2.6653504 -0.58517587 1
5.0086761 -2.7337737 -0.59133571 2
5.4887171 -2.6926479 -0.50409973 7.3333335
6.4893174 -2.6390641 -0.55304277 30.869049
6.6647243 -2.7545009 -0.56244493 18.5
-0.8615604 -2.4673665 -0.49981084 14.572619
-0.7531935 -2.4184523 -0.42890334 6.5
-0.53214544 -2.4134262 -0.52168483 6.421875
-0.30081597 -2.4257016 -0.58022845 17
-0.058356002 -2.4024572 -0.53243148 9.2857141
0.10396104 -2.4273348 -0.52718204 9.1361113
0.28469986 -2.4645917 -0.54287946 4.7747226
2.6495309 -2.4267943 -0.4833506 1
4.4658918 -2.4391916 -0.43848029 27.9
4.6279058 -2.4834614 -0.49003899 19.583334
6.3845811 -2.4408593 -0.53240705 10.444445
6.4613705 -2.5396419 -0.5597564 24.717949
-1.0210685 -2.241869 -0.5106926 77.408798
-0.89578766 -2.2754579 -0.49620149 56.039619
-0.70546204 -2.3593225 -0.50385553 12.577705
-0.48858559 -2.3378999 -0.51052845 11.182629
-0.29947937 -2.3609645 -0.51394749 13.25386
-0.12314318 -2.3671353 -0.52252465 15.180449
0.12924641 -2.350266 -0.53129381 9.1995573
0.25551608 -2.3604302 -0.51667458 7.610898
0.88503516 -2.237618 -0.53794992 1
1.0771296 -2.2277989 -0.53392476 28.410589
1.3490556 -2.2679064 -0.41503131 6.6597228
2.691433 -2.3024337 -0.46539181 50.88641
2.8058081 -2.2913964 -0.53846604 3.3333333
3.8833449 -2.31829 -0.50158876 11.965278
4.5695887 -2.2069473 -0.51010823 12.916666
6.3541603 -2.371737 -0.57000935 1
6.4999657 -2.2660434 -0.5419746 7.1785717
-1.0274911 -2.0828235 -0.49550897 60.476482
-0.9753508 -2.1940653 -0.49880829 60.526669
-0.47401124 -2.0894036 -0.4907223 7.9645567
-0.091168426 -2.147872 -0.45686087 24.222221
0.1723541 -2.1325586 -0.46358445 4.0476193
0.25193873 -2.1068511 -0.46399727 8.333334
0.49710801 -2.0962093 -0.41136655 35.22633
0.66220671 -2.159554 -0.43710792 6.5
0.87120837 -2.0883276 -0.49850181 8.0084848
1.0834975 -2.1294105 -0.53809237 34.557308
1.3035042 -2.1068661 -0.5263924 45.114433
1.4766949 -2.1243529 -0.52761745 51.002644
1.6439019 -2.1211243 -0.53956395 55.75
1.9751282 -2.1977167 -0.57669687 76.14286
2.7286556 -2.0931876 -0.47388542 78.340996
2.8105397 -2.0759435 -0.54384673 1
3.4270718 -2.1160257 -0.49760798 17.388887
4.5814342 -2.1725323 -0.50651157 7.25
4.6794491 -2.071954 -0.51596588 33.166668
4.821557 -2.0030799 -0.51970279 35
6.5251217 -2.0840843 -0.5848732 5.7142859
-1.0572718 -1.9044975 -0.49656603 64.236328
-0.45766503 -1.9495729 -0.47085157 31.593985
0.041076176 -1.8127574 -0.46055025 3
0.22517557 -1.8961092 -0.43826798 1
0.89673948 -1.8937562 -0.47146517 24.459253
1.1526575 -1.864239 -0.51002777 21.48937
1.2387912 -1.9234576 -0.52264869 22.341988
1.464359 -1.879473 -0.5183208 24.373133
2.7340095 -1.893834 -0.47963122 79.019592
2.8093567 -1.888577 -0.44245282 3.189394
3.3987372 -1.840642 -0.5574941 1
3.5136492 -1.8843158 -0.46470711 2.121212
3.6323071 -1.8750726 -0.50286818 5.6875
4.6955709 -1.9648757 -0.51618153 27.666666
4.9682088 -1.9170518 -0.46185595 19.291668
5.0953631 -1.9368025 -0.57166147 19.25
6.4606352 -1.966228 -0.57755619 2
-1.0618005 -1.6936858 -0.47575194 59.664272
-0.026658356 -1.7522821 -0.41923392 1
0.088212706 -1.6519359 -0.42160049 3.6018097
0.2150254 -1.6734816 -0.42545965 1.1143519
0.90941328 -1.7065949 -0.44429994 29.988428
1.1554847 -1.6610348 -0.47916129 22.664034
1.2590019 -1.6462877 -0.46208215 26.214285
1.4391341 -1.6516979 -0.50649273 19.753056
2.7423453 -1.6856142 -0.49251044 69.794739
2.8401601 -1.6079527 -0.48422086 2.1111109
3.0172629 -1.6137331 -0.42948639 1
3.2202885 -1.7558975 -0.52238023 1
3.5407269 -1.6899892 -0.44399357 1.602941
3.6222446 -1.72238 -0.49492043 3.3170834
6.4563303 -1.6471084 -0.54513031 9.3999996
-1.055897 -1.4965852 -0.46192425 63.319778
-0.083254941 -1.4677318 -0.42512122 18.208334
0.13763243 -1.5659889 -0.41224992 9.7542524
0.93748856 -1.5055218 -0.4388684 27.279451
1.0273401 -1.4576577 -0.46159124 18.203859
1.3510692 -1.5783563 -0.5155943 24.445271
1.4200387 -1.5863614 -0.47830239 23.418663
2.7370846 -1.5850265 -0.50115663 54.745174
2.8384843 -1.5823326 -0.48779285 5.7115078
3.7787011 -1.4505095 -0.46433887 3.1666667
3.8372002 -1.4710902 -0.46369401 6.3020835
6.4583182 -1.4955643 -0.54252118 13
-1.0551751 -1.3024979 -0.44956726 64.025269
-0.071637072 -1.3852981 -0.4209291 26
1.0136446 -1.3877093 -0.44630519 30.322222
6.5211773 -1.2185314 -0.54389071 9.75
-1.0483 -1.0981379 -0.45473802 68.64727
-0.91359013 -1.0282638 -0.55932748 10
6.5319042 -1.1168423 -0.51633078 9.3000002
-1.0476604 -0.91583711 -0.45562056 57.011116
-0.91358262 -0.90062523 -0.49141073 30.416668
-0.63157427 -0.90081143 -0.59902614 2
2.689065 -0.83450705 -0.42707157 1
5.4750714 -0.97763383 -0.44436562 18.666666
6.5366468 -0.9416182 -0.54188347 22
-1.0442921 -0.71061784 -0.44449154 69.835716
-0.95355964 -0.78194982 -0.40899134 24.625
2.3424149 -0.63183814 -0.49170282 8.6474886
2.4896767 -0.70995587 -0.50096816 11.971684
2.6457233 -0.79172516 -0.55671269 2
2.9255776 -0.66744888 -0.48019686 15.444446
5.9878654 -0.67347789 -0.48820007 15.666667
6.02988 -0.75177002 -0.49281418 13
6.9934912 -0.64302754 -0.5823878 5
-1.0377351 -0.50518095 -0.45773575 65.047615
-0.98232031 -0.41323429 -0.40068704 7
2.2841396 -0.50270253 -0.47464377 13.693938
2.5138631 -0.45929641 -0.51411283 11.269107
2.6805506 -0.48029479 -0.46409032 10.15625
2.8769183 -0.5080269 -0.48475763 16.555189
5.837081 -0.53929925 -0.4730483 20.5
6.8961501 -0.42488202 -0.49342638 1
7.1023927 -0.47718588 -0.42360616 5.1666665
-1.0322145 -0.32313347 -0.43282622 69.59951
-0.98643839 -0.36868995 -0.41921833 51.279762
2.3170183 -0.25533804 -0.5092029 5.8511271
2.4948459 -0.29567295 -0.49053675 10.396464
2.6822765 -0.21614319 -0.49348471 8.0277777
2.8568451 -0.21817034 -0.47318381 20.841909
6.9840541 -0.3307628 -0.49973586 1
7.0821571 -0.32435176 -0.41785443 11.416667
-1.036774 -0.10331649 -0.42364171 80.429138
2.3296459 -0.095525011 -0.45516455 3.1324244
2.4676497 -0.096654356 -0.50414526 6.9271941
2.727345 -0.12074983 -0.51013958 4.3666663
2.871892 -0.16267931 -0.47971848 21.310152
6.4975586 -0.014084339 -0.49935713 27.233334
6.6598797 -0.08073394 -0.49241874 7
7.0987759 -0.11907122 -0.47589985 9.25
-1.0246542 0.098490477 -0.42650503 85.468399
2.3698123 0.028997447 -0.45785728 3.3952625
2.4534285 0.070590742 -0.48123735 3.5714285
2.745373 0.10742681 -0.48482311 23.402779
2.8869007 0.11592139 -0.45851567 18.310192
3.0588784 0.14224789 -0.44104061 4.3666668
3.3532045 0.065539122 -0.4258813 2
6.4917407 0.12443941 -0.5049482 20.205442
6.9432588 0.068735994 -0.51573873 2.75
7.0916462 0.11783237 -0.49958667 10.59375
-1.0274304 0.29701149 -0.4275451 74.786949
-0.99963975 0.30632406 -0.42992458 93.25
2.1198807 0.34394512 -0.44742262 52.381657
2.3098474 0.30344406 -0.4578993 11.87244
2.4987714 0.28670213 -0.48522511 14.194085
2.6932921 0.26397327 -0.47287285 13.885185
2.8588066 0.23802239 -0.42834124 23.395596
3.1293511 0.24762155 -0.42606881 6.1153846
3.2389598 0.25404456 -0.41084978 20.214285
4.5785546 0.37523401 -0.51790899 21.069445
4.6123939 0.38927582 -0.51423556 14.916666
5.5293055 0.36133069 -0.45665091 11.596354
6.4976325 0.30169275 -0.5133338 20.186567
6.7240648 0.3695676 -0.52873135 54
6.8520508 0.34507969 -0.54492795 13.5
7.0786719 0.27742097 -0.46131238 9.583333
-1.0163618 0.50093347 -0.4339588 86.738686
-0.92042398 0.55013585 -0.43205523 59.963234
2.1077471 0.50010723 -0.45362112 72.460175
4.5846343 0.42000452 -0.48494682 19.629387
4.6275792 0.43677357 -0.48738235 14.621795
5.5328307 0.40894315 -0.50370997 13.666667
6.5036316 0.5062269 -0.50985759 23.069334
6.7648287 0.5112465 -0.49426523 1
7.1056352 0.54793692 -0.42846203 12.222222
-1.0191039 0.69622517 -0.42742288 77.183006
-0.96356833 0.64429784 -0.43753105 42.407848
2.1269886 0.71982473 -0.46108711 71.949257
4.5924635 0.67225307 -0.49163729 12.866667
4.6228752 0.6918695 -0.49495262 23.791668
5.5385008 0.6557802 -0.46546164 17.280701
6.3281355 0.79230344 -0.50542063 4
6.5018482 0.68584818 -0.51256776 23.607332
6.6732898 0.76614136 -0.52479345 1
-1.013917 0.89003474 -0.43928802 81.410072
-0.93547767 0.9624905 -0.4421615 45.947998
2.1336577 0.8207826 -0.46908677 72.260368
2.2726727 0.84785247 -0.41935429 16
2.5042427 0.82358629 -0.4421272 38.972225
2.7821159 0.88851619 -0.49987334 71.502579
2.8915477 0.81985426 -0.5013628 1
6.503334 0.90346289 -0.51272333 27.12381
-1.0215355 1.0271118 -0.43788338 39.803734
-0.91547585 1.0383829 -0.45052156 31.972908
-0.7128849 1.0369551 -0.44358683 21.920958
-0.49943709 1.0788386 -0.42866117 25.47193
1.348061 1.1924386 -0.43994331 53.635502
1.5205393 1.1825696 -0.44809082 36.058571
1.6950642 1.1762463 -0.45745569 27.119648
1.8894585 1.1678485 -0.46489179 27.764656
2.0964971 1.158813 -0.49213728 29.415668
2.3079975 1.1527911 -0.48879418 33.831486
2.4516425 1.1517768 -0.51076269 38.566414
2.7713981 1.1505324 -0.50819826 82.723869
2.8155344 1.1664647 -0.50844586 53.268097
6.5137944 1.1180037 -0.51838005 22.0625
-0.45698628 1.2718835 -0.43077037 21.355759
1.3487396 1.2891147 -0.45287201 19.508026
1.4778992 1.2115092 -0.4750489 27.800322
2.1663861 1.2010797 -0.43657041 7
2.7641804 1.257463 -0.49530169 79.319405
2.8017941 1.2355331 -0.48862669 66.88929
6.5708027 1.211603 -0.52363074 24.333334
-1.0006713 1.505947 -0.43181884 93.03846
-0.96868896 1.5414424 -0.43066221 82.85556
-0.47114003 1.4971069 -0.44409224 33.784424
-0.28930032 1.5140475 -0.43521541 37.310066
-0.18681869 1.4994719 -0.44314331 36.822945
1.3404995 1.5019629 -0.46681923 1
1.4047507 1.5298518 -0.48257655 1
-0.92786121 1.7279642 -0.456258 56.388084
-0.76198423 1.744398 -0.49815962 18.916666
-0.45180815 1.6282573 -0.48232886 31.34091
-0.2276417 1.6493462 -0.42700979 48.139595
-0.18439516 1.6677003 -0.44674075 50.912411
1.3479599 1.7004008 -0.48010829 1.0035697
-0.86402935 1.8305761 -0.51377064 26.565699
-0.77418363 1.8371985 -0.46515924 15.846726
-0.13443907 1.8880239 -0.54540634 15.75
0.075642496 1.987995 -0.53357196 21.863636
1.3502344 1.8167847 -0.54716074 1
1.4500161 1.9375333 -0.59863514 1
-0.92181867 2.1468966 -0.44158405 41.477379
-0.74570656 2.0607865 -0.43742701 22.828667
-0.081819788 2.1466854 -0.57602984 10.970288
0.065559715 2.0367768 -0.50224394 28.033188
-0.96774626 2.280561 -0.45447853 53.904598
-0.7963779 2.3547878 -0.41898125 1
-0.096023053 2.2992792 -0.579238 9.5978012
0.013103545 2.287565 -0.56990647 7.5
1.3178807 2.2905533 -0.52532375 15.312486
1.4193493 2.3164339 -0.52415073 8.5716352
-0.96449018 2.5233536 -0.46125275 34.674168
-0.46788731 2.5194695 -0.58591038 11.674603
