# .PCD v0.7 - Point Cloud Data file format
VERSION 0.7
FIELDS x y z intensity
SIZE 4 4 4 4
TYPE F F F F
COUNT 1 1 1 1
WIDTH 1275
HEIGHT 1
VIEWPOINT 0 0 0 1 0 0 0
POINTS 1275
DATA ascii
6.2823963 -7.8969755 -0.077281699 1
6.3840251 -7.8849044 -0.080983594 1
6.4066062 -7.8891883 -0.097004659 1
6.8584309 -7.6874137 -0.099935338 2
6.9071569 -7.6485038 -0.088326477 14
6.6947336 -7.2330022 -0.097515091 22
6.783011 -7.2441773 -0.090120599 2
6.689528 -7.0973201 -0.098255262 33
6.7536812 -7.0246348 -0.083464839 16
6.6891446 -6.9226213 -0.07040672 69.5
6.7013712 -6.9120836 -0.09237504 66
6.9534607 -6.9711108 -0.093537599 16.25
4.1784782 -4.3985419 -0.041016206 13
2.6553023 -2.5062423 -0.030980024 1
-0.87143153 -2.4111862 -0.045890011 2
-0.77130544 -2.4252212 -0.036227278 4.25
2.6568675 -2.4665587 -0.035542071 1.6153846
-0.85193723 -2.3444977 -0.049876384 17.571428
-0.76024348 -2.3628986 -0.044279341 11.481482
-0.6415804 -2.3419061 -0.067397974 17.666666
-0.59440112 -2.3260233 -0.0021150466 13
-0.45584217 -2.3122606 -0.019675095 24
1.7551109 -2.3197532 -0.026486352 1
2.668546 -2.3351007 -0.033809781 1
2.7306855 -2.3034511 -0.025174219 27
-0.86010754 -2.272841 -0.020647217 16.25
-0.50293434 -2.2246289 -0.025108539 5
-0.47248331 -2.2763035 -0.016274592 39.333332
0.83916306 -2.2277954 -0.016699079 2
2.5735815 -2.2704067 -0.026832839 1
2.6036346 -2.2716126 -0.011267139 1
-0.47979051 -2.1944416 -0.027958589 10
0.86326617 -2.1700346 -0.021554422 5.5
1.1674783 -2.1040769 -0.021173786 17.5
-0.49832746 -2.0007439 -0.028580302 3
-0.31228009 -2.0513129 -0.00069820695 86
0.76213014 -2.0910084 -0.015710317 27
0.88996935 -2.0132763 -0.030279841 10
1.1547772 -2.091126 -0.092660628 7
1.2147529 -2.021625 -0.015541288 4
-0.50252843 -1.9972019 -0.025177725 1
-0.46643454 -1.9387099 -0.05400664 51.614285
0.86271769 -1.9407889 -0.066771887 39.894737
0.95476007 -1.9414765 -0.08950419 6.5999999
1.0871593 -1.9181361 -0.079739794 2.4444444
1.1527115 -1.9642566 -0.039060708 1.5333333
1.2122302 -1.9681153 -0.024070563 11
2.7412152 -1.9563197 -0.012710119 13
-0.5076673 -1.837429 -0.01261013 1.3333334
-0.48606998 -1.8460437 -0.020919738 11.333333
0.88211173 -1.8466122 -0.031801246 15.285714
0.91139734 -1.8413467 -0.025592135 3.0666666
1.0697259 -1.8523072 -0.051781341 9.1764708
1.1338823 -1.8617492 -0.032238569 16.375
1.2147206 -1.8789515 -0.0029027909 3
-0.51439399 -1.7056731 -0.0051577119 3
-0.48481038 -1.732996 -0.025229245 11.5
-0.24304159 -1.7183814 -0.010895524 150
0.74816465 -1.7248043 -0.02169342 74
0.87605858 -1.7667319 -0.011122162 5.6666665
0.98812139 -1.7394331 -0.029732499 1
1.0768274 -1.7137954 -0.077581868 23.5
1.1673669 -1.7641025 -0.0080539687 10
3.5665672 -1.7021321 -0.062420949 1
-0.47328681 -1.6465154 -0.042502444 12.5
0.77080792 -1.6700975 -0.062826604 2
0.88606334 -1.6817811 -0.014001638 1
1.0764772 -1.684411 -0.032584261 9
1.3648425 -1.6001365 -0.019624293 35
1.4365728 -1.6491199 -0.041563563 17.5
2.9847021 -1.6197766 -0.03843018 6.6666665
1.077095 -1.573341 -0.09713769 18
1.3811933 -1.5324241 -0.05874934 40.142857
1.4279537 -1.5505106 -0.067550853 24.799999
2.8614891 -1.5628765 -0.05302256 1
2.9435461 -1.5472219 -0.047864668 1.5
3.0095317 -1.5658281 -0.019253809 4
1.2925829 -1.4138343 -0.010421084 55.142857
1.3491162 -1.4560683 -0.03843857 42.568966
1.4101453 -1.4746319 -0.017510939 17
3.0032716 -1.3577188 -0.055129003 4
2.8849459 -0.90947586 -0.037107605 35
2.9433048 -0.94490147 -0.018014014 8
4.5300179 -0.92060483 -0.07040552 1
2.5409243 -0.74180317 -0.039857928 6.8684211
2.6067872 -0.75462437 -0.037532013 1.6
2.2916651 -0.60467529 -0.024086326 7
2.3260069 -0.61266255 -0.02762134 5.5
3.4491563 -0.61802524 -0.050391436 20
2.2758527 -0.57942045 -0.024275532 5.5999999
2.2901835 -0.44474298 -0.061276548 14.346154
2.3306332 -0.43440792 -0.038532957 13.348485
2.4292071 -0.42804953 -0.042958416 12.5
2.5867 -0.41920575 -0.020690933 1
2.6661716 -0.42374015 -0.0408401 1
2.4766877 -0.36598089 -0.044486281 14.482142
2.5308185 -0.37069547 -0.039103791 3.7222223
2.5600526 -0.2144679 -0.04487903 7.0172415
2.6126688 -0.21333721 -0.027500359 3.875
4.5676036 -0.23170419 -0.051833048 1
2.4950888 -0.18877363 -0.044209607 1
2.56264 -0.19282088 -0.047791079 3
2.6098983 -0.16809757 -0.032003578 1
2.7697248 -0.11389966 -0.026163533 1
2.8334191 -0.16167693 -0.032440457 1
4.629704 -0.1065277 -0.053264704 3
2.3925548 -0.039464861 -0.054589272 42.833332
2.4367979 -0.045636453 -0.046077631 16.178572
2.5207467 -0.055333331 -0.034898818 6.5
2.6380675 -0.060017858 -0.029288448 1.6666666
2.7757633 -0.031757347 -0.049846709 1
2.8083179 -0.050025247 -0.065634713 1
2.5814357 0.095986836 -0.024628451 13
2.6007187 0.089501962 -0.03252529 2
6.4969296 0.048049241 -0.093743362 33
6.5471344 0.032278214 -0.091000587 21.333334
2.5889368 0.1119503 -0.020122698 12.666667
2.6314769 0.11966963 -0.026448997 16.466667
2.7465281 0.13466388 -0.039182026 29.6
2.8194773 0.17104305 -0.050699688 1.5
4.5728278 0.18287909 -0.054064732 1
2.4339089 0.2867575 -0.031538971 7
2.5685179 0.28485137 -0.037266329 8.125
2.6403961 0.2598986 -0.056686491 5.8823528
2.0907874 0.34167042 -0.024670077 60.25
2.1185358 0.32349619 -0.07204327 28.833334
2.4792664 0.31653151 -0.040994886 5
2.542311 0.31213453 -0.044797894 13
2.6176088 0.31642354 -0.045883883 4
4.5939393 0.32907161 -0.045381397 14.666667
4.6099105 0.38386527 -0.059872154 11.666667
5.5259695 0.38761628 -0.080765925 2
4.6328244 0.42657527 -0.073774196 4.75
4.5769005 0.66688627 -0.056160238 1
5.5663538 0.71964937 -0.066643372 32.5
2.1353509 0.84843498 -0.047486447 68.403847
2.5602207 0.83192122 -0.090885222 1
2.7494092 0.85281986 -0.030178629 18
1.4402471 1.0209295 -0.056694839 65.125
1.3238935 1.1974056 -0.060611404 41.25
1.5464427 1.1510768 -0.050578423 23.666666
2.4660988 1.1625738 -0.045690686 40.666668
1.3283609 1.264847 -0.061262194 4.8333335
1.4329901 1.2179033 -0.083410516 18
1.5128174 1.2513415 -0.039998513 14
1.9677365 1.210631 -0.026373761 22
2.073909 1.2004339 -0.072354235 7
2.7597976 1.274606 -0.046605714 66
1.3313788 1.3244536 -0.087339245 1.3333334
1.3365675 1.4693238 -0.032650322 1.4444444
1.3472728 1.5297703 -0.05100783 2
1.3362982 1.6268455 -0.050502863 2.5714285
1.3484488 1.7697746 -0.072555542 1.3333334
-0.97163433 1.8083862 -0.053611159 82
-0.86316985 1.8569037 -0.074084729 23.777779
1.3598572 1.8199855 -0.051930502 1
-0.8252064 1.9771273 -0.06713517 30.4
-0.78688401 1.9424489 -0.075429216 22
0.15710044 1.955148 -0.095911406 2
-0.96742141 2.0385377 -0.098345451 13
-0.84939605 2.0216017 -0.075702175 5.5
-0.73017746 2.0656495 -0.040558666 10.1875
-0.37180683 2.0858781 -0.044829275 69.666664
-0.81845009 2.1964893 -0.07141535 8
-0.725034 2.1541405 -0.060038593 2.5
-0.38166499 2.138036 -0.057482548 22.117647
-0.85681432 2.2476466 -0.054707363 19.666666
-0.73811525 2.2624652 -0.067852266 13
-0.3671082 2.2457838 -0.045530811 2
-0.27908188 2.2888231 -0.050635718 61.799999
-0.86022556 2.3227072 -0.041454941 22
-0.70458859 2.3300915 -0.067806423 8.5
-0.47413278 2.3461835 -0.058944721 3.6666667
-0.34571654 2.3551207 -0.048698645 54.846153
-0.2717073 2.328615 -0.055711608 8.7894735
-0.95979112 2.4520583 -0.063748069 47
-0.72546172 2.4193892 -0.082899392 3
-0.61894143 2.4759505 -0.054017641 2.8
-0.5764721 2.4930961 -0.072299413 2
-0.45982444 2.4378853 -0.061093464 17.25
-0.32084438 2.4667358 -0.038886402 39
-0.29638216 2.4609747 -0.049552079 26.75
-0.62166804 2.5219204 -0.056397121 2.8571429
-0.55949032 2.5625222 -0.053282354 25.428572
-0.3132304 2.5060673 -0.057440307 97
-0.26017889 2.5653334 -0.047809079 32.23077
-0.56205499 2.644304 -0.066323631 4.25
-0.2392963 2.6066766 -0.028908715 15.75
-0.10770072 2.6837888 -0.070403367 89.5
-0.042545483 2.6778629 -0.073606342 82.181816
-0.56508708 2.7504437 -0.076357834 13.666667
-0.23247451 2.772151 -0.086427972 33
-0.079598501 2.7060642 -0.058562689 62
0.055913046 2.7336092 -0.095276877 5.5
-0.55425018 2.8220494 -0.055815849 42.333332
-0.22347414 2.8377881 -0.07578145 40
-0.19652231 2.8361568 -0.096277729 7
0.11662012 2.8176942 -0.080737717 2
-0.76718384 2.9866202 -0.062799625 1
-0.51953977 2.9854741 -0.039583147 1
-0.13610375 2.9045622 -0.074584045 10
0.065431841 2.914916 -0.07476642 4
-0.78614211 3.0394123 -0.059985925 1
-0.21494433 3.0361247 -0.063798942 1
-0.0048295557 3.0884895 -0.084100403 40
0.06389121 3.0595062 -0.071119837 2
0.12487089 3.0834467 -0.066478625 8.5
-0.73670954 3.1976266 -0.071417615 3
-0.3065238 3.1463821 -0.0848407 2
-0.044667866 3.1801116 -0.066693515 1.2631578
0.05141928 3.1456506 -0.062666751 8.75
0.12719737 3.1235516 -0.065673195 6.8888888
-0.87253708 3.2671866 -0.046208233 45
-0.50515103 3.2299881 -0.064590745 3
-0.48577142 3.2275906 -0.052833781 22
-0.33659732 3.2375093 -0.091430843 49
-0.060399264 3.2108121 -0.05989223 1
-0.97023618 3.4626393 -0.080925375 38.299999
-0.4887799 3.4925122 -0.076823339 1
-0.96593595 3.5345154 -0.086270399 33
-0.4538281 3.6771748 -0.076246537 1
2.3370843 3.640352 -0.078182057 51.913044
2.6274426 3.6755874 -0.075791359 25.799999
2.7914703 3.640265 -0.077079847 53.25
2.8371391 3.7066507 -0.080565095 2
-0.46627384 3.9673033 -0.095365837 1
-0.23155874 3.949791 -0.079999939 1
-0.22075103 4.014586 -0.07909029 18
-0.37561357 4.1548953 -0.093306899 1
-0.47228998 4.2080169 -0.065858252 1
-0.064616382 4.2797995 -0.097943597 85
0.88184816 4.2740254 -0.083253503 99.5
0.92972112 4.2774901 -0.086676866 43.16
-0.054247055 4.3163013 -0.074173316 85
0.23193216 4.3391476 -0.068903334 94
0.93613434 4.3024931 -0.056624427 4
1.4798636 4.8917584 -0.075173229 9.5
1.243373 4.9974933 -0.094442338 1
1.5386729 4.9598193 -0.089902431 3.909091
-0.45693332 5.378921 -0.072270498 1
2.8430705 5.3814573 -0.097215831 1.5
2.9512253 5.3531704 -0.090351261 42.75
2.6784532 5.666285 -0.099071011 2
0.73647666 -3.659646 0.098766208 1
0.45903242 -3.5082059 0.083938621 2.5
0.69373786 -3.5109353 0.093641788 13
0.44649205 -3.4654686 0.088303424 1.6666666
0.55903828 -3.4570191 0.092942968 2
0.68530929 -3.492337 0.098064721 18
0.14266209 -2.5221577 0.049604639 2
0.28110617 -2.5028491 0.073898703 1
-0.024788082 -2.412442 0.043315578 3
0.081541747 -2.4602275 0.038708933 1.5
0.17392904 -2.4399226 0.07564766 1.3333334
0.25395438 -2.4545946 0.074796118 1
2.6403906 -2.4546993 0.085917979 1.0652174
-0.84470844 -2.3380165 0.063840777 11.783784
-0.7559005 -2.3558741 0.062695861 11.918919
-0.34120297 -2.3040981 0.068329841 18
-0.16867125 -2.3797622 0.06456539 1
-0.059149247 -2.3933384 0.062175173 6.8000002
0.083782032 -2.3574057 0.055130266 7.5
0.13811752 -2.3611395 0.059634157 8
0.23311192 -2.3774736 0.062748529 11
0.34802714 -2.3342235 0.062118962 1
0.45802283 -2.3002069 0.06899669 1
0.64553696 -2.3360898 0.062434051 6
0.82409406 -2.303745 0.00055667944 18
0.92698365 -2.3300254 0.069247887 15.4
1.7436414 -2.3028612 0.089832328 1
2.6338944 -2.3846951 0.086538605 1
-0.8494488 -2.2693965 0.057178229 17
-0.49167669 -2.265846 0.067845829 18
-0.2319099 -2.2134349 0.050371308 13
0.36123979 -2.2905767 0.068143174 1
0.45419446 -2.2348199 0.053556345 22
0.59905225 -2.214721 0.0556124 2
0.74669278 -2.23051 0.05265867 1
0.86860812 -2.2530856 0.032487758 41
0.93225527 -2.2946131 0.07533668 47
2.5769801 -2.2597513 0.071426153 1
-0.56483471 -2.174932 0.066118889 22
0.19165081 -2.1115947 0.069321461 1
0.21829884 -2.1085467 0.034407321 1
0.53571194 -2.12819 0.053329479 2
0.64860362 -2.1887558 0.05370494 27
0.7936874 -2.1573427 0.066521145 1
0.81113088 -2.1559749 0.063927554 1
2.7181499 -2.179832 0.078410253 43
-0.47291553 -2.0742788 0.065296583 3
0.081868365 -2.0366669 0.057916779 6.8571429
0.17187075 -2.0192661 0.051881682 3.6764705
0.27240497 -2.0164371 0.050702035 1
0.47102273 -2.0214128 0.052754115 7.375
0.54648972 -2.0477533 0.056648336 78
0.75605237 -2.0598545 0.062204134 1.2
1.1898079 -2.0063519 0.061504181 1.25
1.2057936 -2.0265605 0.05330316 7
-0.16406111 -1.9096924 0.095238268 1
-0.018660784 -1.985781 0.050707061 1
0.072977155 -1.9390827 0.048270412 3.3125
0.17606854 -1.980623 0.053817414 2.8846154
0.22396675 -1.9745293 0.055702761 1.5769231
0.45233113 -1.9523602 0.04394424 23.5
0.55859268 -1.951233 0.035020083 64
0.68666852 -1.95096 0.050039805 2
0.71509302 -1.9553475 0.063306183 1
0.87516272 -1.9078379 0.060500167 2
1.0291791 -1.9876403 0.061605062 1
1.1920414 -1.9709162 0.054349214 1.8
1.2102411 -1.9296244 0.045386594 2.8461537
-0.5269233 -1.8399717 0.029790912 10
-0.47543183 -1.8620925 0.0037569061 39
-0.11785518 -1.8829467 0.081963867 1
0.039520856 -1.8619572 0.052894656 8
0.16607665 -1.8021417 0.04237346 3
0.65055609 -1.8539686 0.064786695 5.7380953
0.92403644 -1.8359724 0.039334867 3.3333333
1.1855425 -1.8904241 0.07071954 3
1.207422 -1.8862556 0.058255866 6.75
3.1448562 -1.8034755 0.08099325 13
-0.53857785 -1.7571015 0.04987032 11.5
-0.47559458 -1.700936 0.0027114991 7
-0.38671255 -1.7649947 0.056687519 18
-0.056301177 -1.7517074 0.04711502 1.375
0.22950536 -1.7848787 0.042303372 10
0.46556538 -1.7840937 0.033194453 4
0.58242202 -1.7632793 0.044772148 1.3333334
0.62407047 -1.7675743 0.051028278 3.3333333
0.74147487 -1.7396076 0.030520253 80.5
0.88036424 -1.7495751 0.039165474 10.333333
0.93666291 -1.7623934 0.043682519 4.3333335
1.0058658 -1.7299756 0.033157643 3
1.1496745 -1.7797761 0.044576589 43
2.7263408 -1.7650713 0.081412077 51
3.2490935 -1.7365113 0.082858689 15.846154
3.3029692 -1.7399931 0.073803082 2
-0.51222783 -1.6681985 0.034104168 5.5
-0.49763286 -1.6599015 0.011650683 3
-0.34033641 -1.6256267 0.0029252097 163
0.59273434 -1.6770586 0.029536285 18
0.87158281 -1.6692023 0.046588641 80.5
1.1857781 -1.6276908 0.067801565 18
1.3943198 -1.614961 0.071749613 18
1.4118832 -1.6308911 0.053758305 33
1.2533897 -1.5716305 0.080509737 39
1.3282807 -1.5681543 0.066696964 45
1.4196396 -1.5323181 0.047396958 28.666666
2.7756019 -1.558041 0.074078247 6.3636365
2.848592 -1.5663705 0.075080402 5.6923075
2.9087775 -1.5884112 0.07409627 1
1.2838812 -1.4179841 0.068684906 47.6875
1.3498996 -1.4445686 0.061095461 38.095963
1.4081917 -1.4799916 0.035982717 17
1.2864881 -1.390406 0.044063691 40
1.3240125 -1.3990195 0.044139747 30
2.9877958 -1.2037128 0.074092865 1
2.8765268 -1.01579 0.066655144 2.9473684
2.9177306 -1.0253017 0.067930609 2.8666666
2.8810918 -0.94206619 0.068700977 5
2.9047825 -0.96999043 0.071825065 4.0999999
2.8710473 -0.87487316 0.066950507 9
2.4940867 -0.72700685 0.056022093 10
2.5245144 -0.73855424 0.0573751 6.9629631
2.2903535 -0.60484028 0.039122894 8
2.3034563 -0.61622143 0.05763372 8.5
2.2632835 -0.57819253 0.059927884 5.5454545
2.6540382 -0.58943796 0.055022858 8.5
2.2834578 -0.44087493 0.06422171 15.090909
2.3312685 -0.4283601 0.04838166 16.3125
2.4371912 -0.42343795 0.045938063 14.666667
2.5528102 -0.41031677 0.050362095 5.5
2.4770472 -0.37576956 0.056795418 11.6
2.5202513 -0.37501213 0.050529089 6.090909
2.4916127 -0.25776166 0.058878064 13
2.556988 -0.21974485 0.052489158 7.7884617
2.6183817 -0.20672904 0.069503926 7
2.8394125 -0.20127666 0.050735503 2
2.4605246 -0.10410251 0.072199479 7.5
2.5518298 -0.1666128 0.052803721 3.5555556
2.6023712 -0.19133505 0.058740515 1.5
2.7781236 -0.14986043 0.056562826 1
2.8481967 -0.16169947 0.057069227 1.2222222
2.4373193 -0.082884945 0.049899347 13.769231
2.549346 -0.018443972 0.059321359 19.727272
2.6019998 -0.010537212 0.066989534 13
2.858532 -0.066637881 0.055485025 1.1666666
2.5469491 0.025207907 0.045517597 8.6000004
2.605118 0.021269459 0.042756718 13
2.8507652 0.035435803 0.063866124 2.3571429
2.8351822 0.13449094 0.051843423 4
2.5581934 0.28139219 0.056030154 13.772727
2.6072698 0.27443531 0.056203593 2
2.7729445 0.27141124 0.043505583 62.25
2.826961 0.24519989 0.045381822 1
4.8848519 0.27611071 0.083868444 27
4.9169474 0.2606914 0.091266178 1
5.0309429 0.286937 0.090771943 7
2.0832994 0.32772148 0.061440773 41.666668
2.1099558 0.32401067 0.061534829 21.5
2.5401902 0.30342436 0.046335965 11.8
2.6080346 0.30324918 0.032204285 7
4.5276093 0.39829171 0.087957084 1
4.6117182 0.39190534 0.075513594 1
5.0269074 0.32883936 0.086632349 17.75
4.5555911 0.40838733 0.079768598 2.6666667
4.6243 0.45102811 0.078944668 4.5
5.0859261 0.42123801 0.087970287 4
2.1027491 0.53012085 0.038533133 40
4.5709066 0.52813327 0.085926622 9.8000002
2.0994608 0.69549727 0.04099419 35
2.1216552 0.84290242 0.054019753 70.940002
1.4757739 0.99567086 0.028654004 65
1.4649724 1.0167317 0.041254606 72
1.5098203 1.0196536 0.09746284 33
1.3031738 1.1940764 0.06727156 41.5
1.5575377 1.16838 0.034286886 24.5
1.9270487 1.1558714 0.098219246 58
2.1676016 1.1775721 0.0384386 33
2.4570625 1.1576523 0.045925867 44.263157
1.2937294 1.2428446 0.077504158 1
1.3289659 1.2594236 0.071337849 8.5694447
1.4864738 1.2698896 0.085991353 10
1.5566039 1.2039781 0.086122662 22
2.7575843 1.2630646 0.051010225 81.888885
1.3433589 1.4827135 0.037250783 3
1.3210697 1.5829896 0.030395713 15.428572
1.3379835 1.6416994 0.030173317 6.5952382
1.3321259 1.7214484 0.093838841 1
-0.97242469 1.8149449 0.031078815 87
-0.74643195 2.0651884 0.039031185 7.8000002
-0.82809472 2.1730196 0.040352557 5.75
-0.77549273 2.1273906 0.030098557 6
-0.92653662 2.3549843 0.041818094 7
-0.2779429 2.3905895 0.071821347 58.200001
-0.98637646 2.4083412 0.046922114 53.5
-0.32421747 2.4417303 0.033105634 39.299999
-0.27275816 2.4347005 0.047306988 55
-0.97410816 2.5471277 0.034451094 68
-0.40615946 2.5213192 0.047979362 2
-0.36709335 2.5122058 0.03296693 20.916666
-0.23392989 2.5082128 0.035841256 50.666668
-0.16093062 2.5865941 0.053227559 16.416666
-0.63798428 2.6680634 0.055205747 72.777779
-0.56214982 2.6600742 0.043364309 66.599998
-0.48538893 2.6840999 0.030518994 1
-0.30514863 2.6515942 0.038587168 26
-0.21990578 2.6170499 0.028376337 40.599998
-0.17168868 2.61325 0.036569942 32.903225
-0.62735009 2.7420816 0.040393572 2.8333333
-0.57729453 2.7414999 0.036097791 2.8333333
-0.62214106 2.8073218 0.047383003 4
-0.58757579 2.8365622 0.04236133 1.3333334
-0.92622441 3.1814766 0.043030366 1
-0.65254265 3.1206419 0.026648911 3
-0.48111743 3.1778712 0.0070693661 4
-0.93454635 3.206707 0.038729586 1
-0.85612637 3.283787 0.040291373 66.272728
-0.47982925 3.2333622 0.046488695 20
-0.86410916 3.3031631 0.036794327 66
-0.96462905 3.4777727 0.047516685 66.5
-0.96759331 3.5519583 0.045582805 34.133335
-0.97122687 3.6200006 0.020271325 31
-0.41344124 3.6208866 0.054212999 15.5
-0.35696644 3.6145616 0.048445083 1.5
2.3328221 3.6569102 0.052482843 68.03846
2.4505236 3.6787097 0.05635969 29
2.5319319 3.6769974 0.066984199 2
2.6755645 3.66294 0.036119413 58
2.7717717 3.6627383 0.057131 52.25
2.8100929 3.6571362 0.047499869 36.5
2.3152781 3.7174304 0.053375255 45
2.474268 3.7185214 0.066685401 19.333334
2.5350902 3.7064106 0.06286113 59
-0.25957978 3.8174486 0.03885008 94
2.3715267 3.9429655 0.06385003 28.5
2.4262557 3.9702072 0.078187898 15
2.61971 3.9207685 0.081678599 1
2.7953043 3.9705462 0.044108085 58
2.8037982 3.9528222 0.045944907 2
2.2842176 4.0883861 0.059342001 12.333333
2.3223662 4.0274582 0.047752187 16
2.7965698 4.0971484 0.057386763 2
2.8094907 4.055522 0.052877128 7
2.2802894 4.1302938 0.063436329 2.5
2.3151069 4.1587195 0.063620687 12.6
2.7998378 4.1397181 0.057191428 10
-0.065172397 4.2876506 0.028292054 99.333336
0.88868189 4.2831459 0.057061918 99.882355
0.92057532 4.2805519 0.050540812 101.90323
-0.043641973 4.3265204 0.050499633 94.627907
0.0026933104 4.3252649 0.0457705 117.5
0.27878606 4.327549 0.041793257 100
0.3054485 4.3198256 0.055292502 100
0.8822611 4.3070788 0.022195574 40
0.90194082 4.3024144 0.041442398 88.333336
2.4458246 4.4442329 0.070978276 13
2.5450096 4.4706764 0.087296613 16
2.3737187 4.5607615 0.065692179 6.5
2.4022069 4.5897264 0.05279623 22
-0.42586505 4.6304817 0.059003148 1.7777778
2.3914642 4.6202664 0.063446254 4.5
2.4212279 4.6230955 0.066062726 10
2.3441124 4.8432198 0.073385142 31.25
1.4918272 4.9223242 0.031915035 40
1.5300201 4.9434772 0.040575925 30.333334
2.3184566 4.9369831 0.070473388 10.5
1.3356239 5.0363779 0.031640127 1
2.3480551 5.0652647 0.077619255 39.125
2.8402789 5.0505247 0.046500232 33
2.360456 5.1315842 0.067053802 20.166666
1.506548 5.2662377 0.04846561 1
-0.3985647 5.3735657 0.04728967 1
1.4958665 5.3376245 0.049461279 1
2.9215403 5.3797355 0.041577734 2
-0.69231814 5.4953566 0.065022498 53.5
-0.70264339 5.5111847 0.052416056 84
-0.65894562 5.5173159 0.064650036 78.25
2.3757482 5.6455879 0.033739433 70
2.4634686 5.6655908 0.076583259 57.25
2.5072608 5.6462893 0.061524436 10
4.0178847 5.6724639 0.057930559 3
4.886919 5.6304708 0.044538476 1
4.9077697 5.6420317 0.053617802 3
0.25424656 -6.2651958 0.16541843 1
0.049982309 -6.1786642 0.15749422 1.5
0.39693683 -6.1816683 0.17513438 33
0.72282898 -3.7024395 0.11171445 1
0.7485339 -3.6629021 0.10365045 1
7.0689707 -3.6631613 0.18781063 7
-0.70668364 -3.5007198 0.19765636 3
-0.58582526 -3.5705171 0.19983771 22
0.21419372 -3.5039344 0.19803691 1
0.56843925 -3.5022938 0.1064176 1
-0.69485801 -3.4752781 0.19505589 4
0.14520352 -3.4664979 0.19417933 27
0.51735759 -3.4667013 0.10112807 1
0.68262136 -3.4758062 0.15034705 18
6.8878551 -3.4299405 0.18363814 4
6.9006295 -3.4277325 0.19245555 2
7.0286198 -3.4308007 0.19293906 1.5
0.62919807 -3.3798444 0.18830812 22.5
6.8847284 -3.3949304 0.17964298 1
-0.60841751 -3.202055 0.18451035 1.5
-1.0620773 -3.1526875 0.19215186 2
-0.61388505 -3.1457064 0.1904972 6.6666665
-0.59585416 -3.1550667 0.16011834 4.5
-0.8640995 -3.0227253 0.18131216 7.5714288
-0.64504498 -3.0067286 0.17976423 28
-0.86113709 -2.974098 0.18614109 12.32
-0.65115935 -2.9872825 0.18402968 35.75
6.4720945 -2.6317592 0.15675542 19.705883
6.5076537 -2.6725509 0.1568583 3.3333333
-0.71377528 -2.5183833 0.12887108 2
-0.1595155 -2.5099905 0.14436889 2
0.28230858 -2.5034573 0.1388386 2.5
6.4562922 -2.5160775 0.15264215 1
-0.87176168 -2.4160328 0.14510132 1
-0.71510339 -2.4939268 0.15524751 2
-0.3499811 -2.457792 0.1509921 1
0.004044354 -2.4698682 0.12595946 2
0.14267473 -2.4365652 0.14669205 1.6666666
0.23542377 -2.4080985 0.13650326 1
2.6312695 -2.4485481 0.16601704 1
4.8291793 -2.4398816 0.11617879 1
6.4400978 -2.4605494 0.12020496 2
-0.84906071 -2.3629601 0.15453933 1.6176471
-0.73178566 -2.3564374 0.10573769 11.5
0.11327662 -2.3650987 0.15116175 1
0.23588343 -2.3676064 0.15810096 1
0.33920467 -2.3270884 0.14105573 1
0.5781545 -2.3600717 0.13269769 1
0.76129425 -2.3619623 0.18570475 1
1.0471839 -2.3634357 0.18687479 1
-0.85076827 -2.2724311 0.13938688 16.90909
0.35498819 -2.2706301 0.12763855 1
0.7553165 -2.2230704 0.15631539 1
1.6881793 -2.2386837 0.19095725 74
4.3751807 -2.2209518 0.11870085 10
4.4882445 -2.2920434 0.11213262 13
4.5200062 -2.2041736 0.11111241 40
0.0044957995 -2.1153214 0.12648237 1
0.19112977 -2.1503239 0.13014816 1.5
0.20003268 -2.1827552 0.13809511 1
0.37664047 -2.1318812 0.1646724 15.65
0.40540689 -2.1686044 0.14687535 4.0999999
0.7554304 -2.1583509 0.14224149 1
2.7222991 -2.1402514 0.17984305 87
0.079924837 -2.0285332 0.12343292 11.8
0.22682042 -2.020762 0.13170959 1
0.71143103 -2.0619133 0.12369657 1
1.0253237 -2.0313857 0.13928282 13
4.5040202 -2.0467114 0.10132062 2
4.6198392 -2.09429 0.12092984 18
-0.16514145 -1.9477644 0.1537907 1
-0.092664778 -1.9247056 0.13091558 1
0.058986321 -1.9778376 0.12294587 1
0.58383965 -1.9052039 0.1808802 6.8888888
0.63722301 -1.9234483 0.12856174 15.5
0.83288044 -1.9339694 0.12655546 1.3333334
1.1753074 -1.9114901 0.15309787 1.5
1.2096725 -1.9145761 0.15869361 2.1111112
-0.15508758 -1.864156 0.16750014 11.96
0.57094532 -1.8750257 0.16399071 4.9827585
0.62040192 -1.8646601 0.12121721 8.8125
1.1616876 -1.8789998 0.1511609 7.7833333
1.2055612 -1.8919314 0.17102563 12.625
0.94265139 -1.7253807 0.11244139 19.5
1.0621521 -1.7016482 0.17689367 2
2.7330859 -1.7331371 0.17393945 90
0.84747607 -1.6049321 0.10865672 27
0.97721732 -1.6041706 0.10874739 17.5
1.0388097 -1.6712624 0.1813909 12.333333
1.1851017 -1.6191156 0.16239759 53
1.2898074 -1.636903 0.19500534 33
1.3085514 -1.60335 0.12285411 35
2.9834816 -1.6061039 0.18380219 1
0.97139925 -1.5827041 0.12722391 23
1.1900625 -1.5952889 0.16649923 49
1.2715676 -1.5626358 0.18342769 62.666668
1.3437511 -1.5501939 0.15605135 33.57143
1.4009033 -1.5257019 0.16305511 55.166668
2.7845798 -1.5540954 0.18752342 1
2.8273015 -1.5726004 0.18454847 2
2.9949422 -1.585175 0.17772645 1
3.0191283 -1.5595264 0.17494467 1
1.3448126 -1.4752563 0.15986702 33.900002
1.4101686 -1.4933164 0.16577907 42.125
2.9969165 -1.4133333 0.1826959 1
3.0137162 -1.1261054 0.18830094 1
2.9940701 -1.0723525 0.17135489 1
3.017668 -1.0593387 0.17393266 1.09375
2.4887054 -0.72370768 0.15159926 3.55
2.5177956 -0.7418825 0.14948799 2.3958333
-1.0632018 -0.67673111 0.18978707 27
2.2723773 -0.6063621 0.17214669 1
2.3046274 -0.60684431 0.14880547 5.5
2.4686036 -0.69507587 0.13497189 10
2.2651703 -0.58453906 0.16315347 2.5
2.5581064 -0.51101708 0.13138199 10
2.612092 -0.56748617 0.14265753 7
2.2738361 -0.43267235 0.13823688 17.382353
2.3242912 -0.41995686 0.14734833 17.4
2.4811244 -0.40913355 0.1463429 9.25
2.5577111 -0.41715685 0.13269676 1.75
2.6148083 -0.43451491 0.12133745 1
2.477221 -0.37581012 0.13893411 14.944445
2.5179384 -0.38996127 0.14205176 6.875
2.4867425 -0.22673526 0.13550879 8.909091
2.5434699 -0.21037737 0.14953925 10
2.4435196 -0.13183263 0.15658911 15.742424
2.5450907 -0.18026023 0.13075633 9.375
2.865108 -0.10989028 0.13171552 1
2.4736431 -0.059052337 0.11377437 13.714286
2.5061789 -0.050781053 0.12418214 26
2.7796724 -0.063114807 0.16038416 1
2.8685529 -0.022569735 0.156167 3.5333333
2.9035742 -0.028971449 0.16386011 2
2.7740746 0.057152767 0.12632351 1
2.8493216 0.044949457 0.15967232 1.5625
2.904259 0.057454407 0.14353968 3
2.7761557 0.11757158 0.14682434 1
2.8480408 0.12655883 0.15037727 1.1428572
2.3112054 0.291751 0.16122042 1
2.446296 0.2964423 0.15516585 2.3333333
2.5649631 0.28068349 0.13311858 6.375
2.6064346 0.2820631 0.13695849 2
2.7653446 0.2564671 0.15974189 1.0833334
2.807158 0.21100552 0.14835969 1
5.0172749 0.28443858 0.10297465 1
2.0825844 0.33418196 0.14441897 51.75
2.1349368 0.32279623 0.15176691 1.3333334
2.255373 0.32474637 0.1725377 5.6666665
2.3242366 0.3235161 0.1801818 2.4666667
2.4832644 0.30023593 0.18418665 1
2.5724797 0.3011958 0.12246457 3
5.0060415 0.40504977 0.10209057 35
2.0935676 0.56780767 0.11218811 90
2.1727855 0.73237866 0.17093301 29.666666
2.2193549 0.74901837 0.18741597 12.4
2.1246641 0.84718597 0.12844391 79.083336
2.5776706 0.8228519 0.10507197 1
2.6298089 0.81399512 0.10475091 2
1.4940435 0.99972206 0.14566845 66
1.5225239 0.99273574 0.15904316 64.5
1.4793726 1.0287637 0.1201404 85.333336
1.5201501 1.0058945 0.16314568 81
1.6143308 1.036009 0.16085877 51
1.7338724 1.0912094 0.14296427 1.75
1.3032758 1.1975029 0.14541829 53
1.7113746 1.1067207 0.12308587 48
2.2546878 1.1769272 0.1302413 2
2.3845053 1.145196 0.1261832 10
2.4487102 1.1613607 0.1417249 39.314816
2.7889459 1.1810412 0.18839017 103
1.2961545 1.2423266 0.15206772 5.6875
1.3237789 1.2641397 0.1430622 2.8194444
1.425252 1.2458038 0.15705425 9.208333
1.5360242 1.241756 0.15503642 13.25
1.954078 1.2382483 0.16183114 3
2.310714 1.2255301 0.16250548 1
2.7542169 1.2678264 0.15186463 84.272728
2.7483103 1.3109477 0.15920819 51
1.3246572 1.4731392 0.10828172 1
1.3447875 1.5886471 0.18827173 1
1.340379 1.6249574 0.17004962 1
1.2909925 1.7491325 0.16875441 16.333334
1.3222947 1.7671257 0.16907635 25.277779
-0.97435695 1.8167988 0.11609069 85
1.3308126 1.8093147 0.17837054 35
-0.96296853 1.9945717 0.17832065 59.666668
-0.96340573 2.0165954 0.18226138 49.142857
-0.80846274 2.0903101 0.18204145 10.75
-0.77926612 2.0580914 0.13507085 4.2272725
-0.82684547 2.1250041 0.17730944 7.3846154
-0.79210913 2.1090915 0.11657336 8.75
-1.0038823 2.2223804 0.19517675 10
-0.99939954 2.2924659 0.15820776 35
-0.84493947 2.2599893 0.13333815 4.5
-0.99220568 2.3252869 0.16812986 49
-0.27829114 2.3976343 0.11381944 48
-1.0008768 2.4717839 0.18255247 18
-0.98941231 2.4635649 0.15558843 55.333332
-0.26089299 2.4212115 0.12624776 48
-0.16625002 2.4888318 0.19047426 3.3333333
-0.54349321 2.5602653 0.1523829 70.666664
-0.33618194 2.5316575 0.19401902 22
-0.283279 2.5288725 0.185155 4.5
-0.15135196 2.5584908 0.13303591 15.155556
-0.70752287 2.6927838 0.1230291 46.5
-0.66488594 2.6523314 0.13662529 59.195122
-0.57644874 2.6105695 0.15678208 35.5
-0.32461315 2.674129 0.13751961 22
-0.27176198 2.6390235 0.13701282 38.25
-0.15453355 2.6102483 0.11884947 29.428572
-0.71229744 2.7082498 0.13033836 42
-0.43276215 2.7280815 0.10178553 10
-0.97796786 2.8826051 0.15858009 12
-0.75027466 2.8231986 0.1969613 4
-0.96824473 2.9235799 0.16909815 7
-0.98470408 3.0356779 0.16308385 19.333334
-0.93616563 3.1824334 0.1427933 1.25
-0.94468987 3.2328472 0.15022601 5.5
-0.85907477 3.2691402 0.14934668 7
-1.1406448 3.3674364 0.18794493 1
-0.45587802 3.4235158 0.1454363 13
-0.39319819 3.4772186 0.15068106 10
-0.41348618 3.5277648 0.16717936 10
-0.3932783 3.5390115 0.13459043 22
2.3333132 3.6569695 0.18226168 74.066666
2.7861962 3.6410048 0.16523451 77
2.8107638 3.6568394 0.18317707 7
2.2308412 3.8980134 0.19470221 33
2.3844938 3.8982615 0.15355866 1
2.3462434 3.9732761 0.18701573 12
0.56935364 4.2738733 0.18196809 37.5
0.89645737 4.290051 0.181903 101.16666
0.92145425 4.2759604 0.17524534 113.2
2.439209 4.2534332 0.18066034 7
-0.052001666 4.3296747 0.18370454 95.199997
0.43939304 4.3192329 0.1916405 1
0.57000822 4.3049736 0.19562796 59
0.8765533 4.349884 0.18832888 77
-0.049200535 4.4959416 0.18823919 93
0.83373082 4.4035115 0.18727237 22
0.9204461 4.4623837 0.19200525 98.400002
2.5092745 4.4688396 0.19153123 22
-0.049883582 4.5101948 0.18957821 78
-0.43584493 4.6406956 0.19035071 4.75
2.3287296 4.9322219 0.18941452 22
2.3477809 5.0618596 0.10385185 41
2.4265192 5.6659918 0.10655737 13
3.977767 5.6439948 0.11675824 6
4.8349075 5.6459603 0.10978311 2
5.2204366 -10.419501 0.28841045 1
5.2402124 -10.305641 0.27802452 1
5.263772 -10.25748 0.27919191 31.571428
5.3407669 -10.252152 0.26907489 54.25
5.450428 -10.259507 0.28276828 24.428572
6.3378744 -10.261889 0.28834617 33
6.3619637 -10.011724 0.26975617 51.833332
6.8279171 -10.010573 0.28833839 66.5
6.3821712 -9.9938421 0.23454362 97
6.4180913 -9.9777203 0.25332892 92.5
6.8525324 -9.9736528 0.27968568 99.14286
6.9115157 -9.9392405 0.24483606 93
6.8343735 -8.6335554 0.27084595 18.6
6.8452129 -8.5819044 0.2485579 89.5
6.906908 -8.5247889 0.26545024 1
6.2647491 -7.9254251 0.2432598 1
6.3180189 -7.9162931 0.23306809 14.5
6.2639122 -7.8488135 0.25184867 23.333334
6.3031626 -7.8830948 0.23701486 2
6.8542953 -7.8225842 0.24283119 1
6.8731537 -7.6688581 0.24777299 43.5
6.9194803 -7.5148735 0.26130956 60
6.6786833 -7.2537489 0.23829511 30.25
6.6773529 -7.1638265 0.25638565 36.5
6.7122703 -7.1473732 0.23277648 28.666666
6.6844935 -7.064487 0.23556672 43
6.6989989 -6.9308181 0.22921188 78
6.9611521 -6.9348936 0.2454941 29
6.647563 -6.7349296 0.2357682 120.5
-0.56806916 -3.604454 0.21802032 27
-0.72110319 -3.5625718 0.21445075 3.8
-0.63898164 -3.5695386 0.22362891 10.25
-0.57763177 -3.5744083 0.21755703 14.789474
0.69289511 -3.5393035 0.21927607 20
0.71273851 -3.5410373 0.21624836 11.6
0.56833094 -3.4305727 0.21671371 13
0.69337493 -3.4663146 0.21489157 25
0.71061659 -3.4993932 0.21589549 18
6.9012971 -3.4505363 0.20025717 1
-1.0958028 -3.3319268 0.21060646 20
0.5803771 -3.3938224 0.21576783 13
-1.05898 -3.229161 0.22732005 28.5
-0.61255348 -3.2194965 0.24414638 5.75
-1.0690374 -3.1696839 0.22549218 3
-0.88628793 -3.1329167 0.27865589 3
-0.78932047 -3.1110444 0.27013183 27
-0.61257434 -3.1642766 0.24643837 4.8888888
-0.59775567 -3.167135 0.29625016 18.5
1.3510594 -3.1439166 0.20721082 3
-0.864016 -3.0754137 0.27248847 10.615385
-0.58071661 -3.0918884 0.24736048 1
-0.86297387 -2.9753442 0.20802386 11.4
-0.86190468 -2.4017081 0.22476907 1
0.82489151 -2.4007514 0.2938875 1
2.6310711 -2.4495757 0.21396454 1
-0.84688139 -2.3531723 0.24855812 1.65625
0.67799973 -2.3525624 0.29065764 1
0.73635221 -2.3199782 0.23273416 1
0.8696025 -2.304342 0.23234059 1
0.91547537 -2.3320794 0.20744407 1
1.0458992 -2.3212852 0.20663047 1
2.5929198 -2.3969722 0.21071434 1
2.660531 -2.3053865 0.26633543 53
2.7151327 -2.302316 0.2170193 78
-0.33781034 -2.2654276 0.24727088 1
0.39675152 -2.2081304 0.23024823 7
0.72164232 -2.2332993 0.22541338 1
1.6926033 -2.2389398 0.24652301 78
1.7028326 -2.2434273 0.22200039 57.5
2.6537516 -2.2904735 0.26534963 49.25
0.38494888 -2.1449335 0.25106603 15.836364
0.40500116 -2.1720183 0.23633452 2.2
0.68014795 -2.157799 0.21516943 1
0.7057597 -2.1848783 0.22041042 1
2.717443 -2.1486652 0.28158718 85
0.64259523 -2.0558679 0.21556258 1
-1.2432513 -1.9251193 0.26180729 28.5
-1.1691937 -1.967135 0.27812457 93
-0.16652516 -1.9335654 0.24691941 1
0.55897778 -1.9197854 0.21629645 5
1.1646372 -1.9182229 0.22375917 23.666666
1.217157 -1.9217243 0.2329707 1
-1.2009749 -1.8577801 0.24895909 33
-0.16068032 -1.867439 0.25870436 8.25
0.56585509 -1.8826338 0.20949145 1.6666666
1.0237021 -1.8569565 0.27321771 27
1.1639829 -1.8772663 0.24312185 2.375
1.2161807 -1.8648988 0.26711309 2.4333334
1.0852671 -1.7409335 0.27824128 2
1.15624 -1.7402015 0.27651286 6.2222223
1.203979 -1.7990524 0.29760742 1
2.7282932 -1.7282008 0.26577455 92
-1.2496756 -1.6038036 0.27131706 22
1.0754162 -1.6947722 0.26381356 2
1.1271288 -1.6912614 0.25128669 20
1.227882 -1.6352938 0.25924945 41.5
1.348038 -1.6465302 0.25211138 47.200001
1.4329163 -1.677132 0.26024255 25
2.8843689 -1.6067387 0.27198148 1
2.9855719 -1.6330158 0.20961741 1
1.0577871 -1.5810953 0.22211918 12
1.287456 -1.5465693 0.27041224 15.636364
1.336519 -1.5398331 0.25723389 19.392857
2.7319107 -1.5673569 0.28061423 34
2.8323517 -1.5592995 0.28249472 1.5
2.974776 -1.5912611 0.29980266 1
3.0130661 -1.5703508 0.23131934 1
-1.2551717 -1.4473292 0.2819978 30
1.2827573 -1.4843744 0.22052254 69
1.3395107 -1.4799799 0.22703247 23.799999
-1.3064293 -1.3262731 0.29651341 3
-1.2723072 -1.3537444 0.27398831 13
-1.0733936 -1.3577927 0.238327 40
-1.5660412 -1.2443697 0.28752071 1
2.9900384 -1.1234245 0.25602004 1
3.0068407 -1.1225476 0.29271948 1
-1.3080875 -1.058847 0.28990737 2
-1.288161 -1.0605602 0.29820579 1.5
2.9907324 -1.0596553 0.26029646 1
3.021663 -1.0590543 0.27646634 1
-1.284128 -0.90176511 0.28780508 1
-1.3092389 -0.70633107 0.29002625 1
-1.2431011 -0.74259126 0.27439779 1.25
-1.1048063 -0.7793166 0.26357126 2
-1.0798559 -0.75479883 0.2588653 2
2.4863849 -0.71253908 0.26192725 5.3125
2.526732 -0.73831779 0.24884363 2.4821429
4.9955192 -0.7892102 0.2300137 1
5.453753 -0.71574771 0.24744806 2
-1.2546533 -0.63292187 0.27350053 2
-1.0730543 -0.64644325 0.23638511 17.6
2.4642398 -0.68320197 0.25547573 10
-1.3127043 -0.57023549 0.29880273 1
-1.2450914 -0.55578321 0.28310484 2.8
-1.0917808 -0.54770434 0.25783879 1.5
2.2657621 -0.58255267 0.27086052 4.1666665
2.5639634 -0.51851332 0.23948908 10
2.6137357 -0.57937431 0.23051359 4
-1.2299625 -0.4463506 0.27990416 1.3333334
2.2824743 -0.43196848 0.27926716 17.200001
2.3244665 -0.41302517 0.27310807 18.90909
2.4223888 -0.42133826 0.28588909 14.5
2.5775404 -0.41358232 0.23068653 1.4444444
2.6454606 -0.42449087 0.27096882 1
5.7267003 -0.4733398 0.253474 27
-1.3027732 -0.33887741 0.28998923 1
-1.2649966 -0.35450429 0.27246732 1
2.4940298 -0.34770116 0.2707054 5.5999999
2.5152037 -0.37087548 0.27440321 4.1538463
-1.2063109 -0.22490643 0.27394316 27
-1.1850973 -0.20623672 0.26124564 35
2.4393499 -0.26116738 0.23854154 8
2.55863 -0.21126664 0.27178028 6.9285712
2.6044989 -0.21631499 0.26720601 4.5
-1.1957138 -0.19680101 0.29533878 24.5
2.3913937 -0.1631732 0.22284283 24
2.4213192 -0.16722164 0.22420357 20.217392
2.5678504 -0.1925773 0.27679074 5.3333335
2.8406687 -0.15248951 0.27488771 1
2.7784529 -0.031815063 0.25105211 1
2.8402388 -0.04012578 0.23274882 1.8571428
2.901912 -0.013011138 0.25477394 4
-1.2474439 0.030479193 0.28924659 4
2.776453 0.061213192 0.24052319 1.0454545
2.8291345 0.039190345 0.23850539 1
2.7293978 0.19173722 0.2102894 1
-1.3142953 0.27809775 0.29463029 1
-1.2776103 0.26384947 0.29432139 1
-1.1373805 0.27229011 0.23973204 4
2.7877183 0.22657229 0.25409803 1
-1.3127042 0.35636964 0.2900674 1
2.1919091 0.39482224 0.27266905 1
2.2659063 0.3517974 0.22911061 11
2.3259466 0.3307164 0.22172935 1.92
-1.2686826 0.42350745 0.28887534 1
2.1819372 0.4378401 0.25279793 1
2.2246127 0.41128522 0.24924642 2.5
-1.3061304 0.51727653 0.29391456 1
-1.2394695 0.52722281 0.26428992 3
-1.1200395 0.57985181 0.26781514 32.666668
-1.0900252 0.55939186 0.26357025 53
2.1365085 0.58759677 0.24109007 32.5
-1.1226425 0.60533512 0.2691125 33
-1.0140476 0.60447878 0.23031934 40
2.1704035 0.69612312 0.22802849 18
-1.4821451 0.7039662 0.29787391 22
-1.226725 0.74489218 0.29797858 2
-1.1872255 0.72221994 0.29180965 7
-1.0334454 0.70952642 0.23686512 65.5
2.1764698 0.72490013 0.22466332 9.4375
2.218812 0.75448489 0.22605659 24.34375
2.3023732 0.79854465 0.25888386 40
4.6552844 0.7035951 0.22071993 40
-1.2695229 0.80194026 0.29341051 3
-1.1594136 0.88117886 0.23691443 33
2.3230977 0.81172609 0.20568077 18
2.7515383 0.86524695 0.26044768 1
1.4964691 0.98558265 0.254334 56.583332
1.5157161 0.99283588 0.23855728 70.333336
1.486461 1.0531192 0.25873646 56.833332
1.5253451 1.0081614 0.23731348 77.255562
2.6625369 1.0788767 0.21373513 92
-1.2420944 1.1312649 0.29020005 4
-1.1939291 1.1219314 0.26757872 18
1.3662498 1.1246701 0.29748547 94
1.9447892 1.1735203 0.24326448 40
2.0822272 1.1806346 0.29525083 40
2.1692364 1.1671404 0.29938984 30
2.2352879 1.167338 0.29316199 41
2.4529426 1.1633123 0.24746603 35.244446
-1.1804199 1.2590864 0.27355772 5.5
-1.0332929 1.2793487 0.23362803 2
1.2804239 1.2236975 0.26917636 34.5
1.4304433 1.219273 0.23865555 8.5
2.7488062 1.2662824 0.25714269 87.666664
-1.2520485 1.3036845 0.27189028 1
-1.1848381 1.3409063 0.29286864 2
1.2937899 1.3742595 0.27923334 1
1.3956475 1.3714812 0.28492251 3
2.7719188 1.3009517 0.2444253 33.5
-1.3104997 1.4088572 0.28549901 10
1.3652129 1.4746444 0.24487899 4
-1.153824 1.5493225 0.25442475 66
1.3482311 1.5967085 0.23284429 1
1.3538177 1.6652217 0.25069207 1
1.2922807 1.7716867 0.23682697 23.21875
1.3209982 1.7729337 0.2535077 30.128571
-0.9713648 1.81248 0.20007096 85
1.2950753 1.803936 0.24603339 42.5
1.3149472 1.8074607 0.25117528 30.5625
-0.95326281 1.9865723 0.24825405 36.758064
-0.9526009 2.0148368 0.24788991 21.75
-0.84603608 2.0762239 0.21870391 1
-0.81143492 2.1094365 0.21969138 13
-1.0025247 2.2672317 0.20782875 22.333334
-0.997702 2.299897 0.20953389 33
-1.2224071 2.3620553 0.27797842 4
-1.1677389 2.3362417 0.27017027 12.5
-1.0532677 2.4048302 0.21755336 30
-0.33015066 2.4960978 0.22490659 10
-0.26424152 2.497215 0.20383364 10
-0.17298876 2.4943948 0.20499536 4
-1.1799412 2.5789127 0.25562108 8.5
-0.50983149 2.544661 0.2491776 67.75
-0.49482897 2.5132804 0.23177806 106.5
-0.3304638 2.5453959 0.22482353 9
-0.25998446 2.5504789 0.22512577 4.3461537
-0.17979398 2.5389898 0.21268052 1.5
-1.2094779 2.6965818 0.22057796 3
-1.1674094 2.6336465 0.26876682 6.5
-0.70616853 2.6665502 0.22820321 98.5
-0.68046534 2.6831584 0.21844178 73
-0.42376769 2.6621757 0.28669164 1.5
-0.386976 2.6404328 0.28558165 1
-0.26680744 2.6032143 0.22382787 1
-0.73962027 2.7880871 0.25869188 17.799999
-0.68811202 2.7200208 0.22915173 33.599998
-1.2218513 2.871619 0.28557426 39.599998
-1.1638452 2.879142 0.2705881 15
-0.76348501 2.8413599 0.25059685 2.6363637
-1.258355 2.9087996 0.26740602 21.5
-1.1291982 2.9288976 0.26552528 3.347826
-0.78753746 2.9073384 0.24277522 1
-1.0929596 3.0285149 0.24985382 1
-1.1017059 3.1003966 0.23120487 2
-1.2103033 3.258266 0.29175171 7
-1.1490247 3.2179379 0.27372718 1
-0.95435745 3.2717552 0.27091011 8.333333
-0.45754653 3.2666306 0.22840656 66
2.2979259 3.6824248 0.2174682 45.333332
2.3280954 3.662255 0.22072078 73
2.4645739 3.6539924 0.21735695 32.200001
2.5041966 3.6367445 0.2149553 2
2.6846175 3.6468861 0.2072137 10
2.7851303 3.6361225 0.24839777 36
2.8089185 3.6569958 0.22732814 47
2.8383973 3.7237935 0.29475468 27
2.4937119 3.819788 0.20944175 2
2.7187793 3.8683569 0.21550274 21.333334
2.3357472 3.9561031 0.2156297 32.5
2.5545022 3.9040577 0.24142003 40
2.6556089 3.9168713 0.21347277 1
2.4357972 4.073988 0.29234004 10
2.511302 4.0484052 0.2269014 22
0.5468992 4.2749658 0.20506124 40
0.90163094 4.2907686 0.20351608 95
2.4829619 4.2613249 0.2240039 4
-0.025238216 4.3344669 0.20028774 89
0.43991429 4.3196197 0.20887622 1.2857143
0.90159136 4.3073478 0.20282045 97
-0.029572785 4.4936094 0.25073683 95
0.89204049 4.4656544 0.22383624 99.5
0.92301697 4.4661856 0.22879662 100.74074
2.3849132 4.4698119 0.21691282 3
2.4673178 4.436327 0.22264268 4
2.5011637 4.4516897 0.2243693 4
-0.047923386 4.5119786 0.21607231 87.375
0.012809813 4.5236578 0.22571324 95
2.3818293 4.5235176 0.22080711 22
2.4034116 4.5044441 0.23618786 22
-0.43057936 4.6629634 0.21579692 7.125
-0.39965856 4.6951647 0.23595491 13
2.374893 4.6370697 0.23346223 1
-0.73332065 4.8089957 0.24034473 1
-0.84732151 4.9292564 0.22415885 1
2.2893014 4.9909582 0.210443 7
2.3136353 4.9807181 0.24525407 25.4
2.2852244 5.005981 0.23683879 13
2.3166778 5.0226722 0.2149139 7
2.9535851 5.3781481 0.28251305 1
2.4834833 5.4751101 0.2759009 11.5
2.5310979 5.4681249 0.2700105 4.75
2.9584525 5.4172091 0.28810757 1
3.0100486 5.4270883 0.28813326 1
-0.72242278 5.528717 0.26738316 73.800003
-0.67649704 5.5301795 0.25927803 83.333336
2.5489259 5.530817 0.26992169 57
2.4777818 5.673285 0.25809523 80.800003
2.6928718 5.6806564 0.28815919 45.5
2.7245748 5.6869946 0.29523879 105
2.8485179 5.6695719 0.2859515 21.5
-0.84920323 5.7374392 0.25999922 105.5
2.4591489 5.7037797 0.26836768 47
6.4404979 -13.38717 0.38651586 1
5.2083173 -10.391983 0.3173537 1
5.257308 -10.274615 0.31032628 2
6.3639374 -10.019456 0.30605489 10
6.8292112 -10.012461 0.31004074 68
6.6829796 -9.9885054 0.32633135 30
6.8603554 -9.9767694 0.30938083 76
0.13172048 -6.2500772 0.39874226 1
0.53348386 -6.2054443 0.37326154 39
0.46973443 -6.195044 0.38014248 10
0.54894006 -6.1933842 0.39450809 35
-1.2905004 -3.6583397 0.36422786 2
0.69514006 -3.6011791 0.35394192 1
0.70526516 -3.6202574 0.34543583 2.5
-1.2570091 -3.5513158 0.37318733 33.200001
0.65442449 -3.5294204 0.34558988 19
0.7269991 -3.5436208 0.33646578 1
-1.3114972 -3.4872622 0.35320929 7
-1.2821894 -3.4948235 0.35315347 22
0.68985248 -3.4630334 0.31831387 13.666667
-0.61719066 -3.2201509 0.33093128 7.6666665
-0.59217525 -3.2301619 0.31702912 2.5
-0.90161228 -3.1133182 0.34109515 2
-0.8546645 -3.1155002 0.32039618 10.111111
-0.62264812 -3.1467543 0.31270152 9.625
-0.59068203 -3.1708694 0.30678415 12.75
1.3352842 -3.1352785 0.32353777 2
-0.86094189 -3.0859098 0.31074435 9.9444447
-0.59137142 -3.0774102 0.30589375 1
1.5861934 -2.976759 0.31958607 10
2.5928683 -2.4195092 0.31728786 1
2.6263397 -2.4433656 0.33661151 1
-0.84956819 -2.3536673 0.34732616 1.8333334
-0.74331951 -2.3195 0.39043635 1
-0.68611407 -2.3351026 0.37534073 1
0.49059016 -2.334559 0.38723221 1
0.56073666 -2.3542047 0.37193343 1.0769231
0.64472783 -2.3581319 0.36131054 1
0.75020963 -2.3626623 0.351473 1
0.85272485 -2.3520746 0.37750113 1
0.91828215 -2.3533144 0.32696766 1
1.0269065 -2.3353295 0.35734189 1
1.5668947 -2.3762972 0.36969671 1
2.6525543 -2.3193972 0.34803003 40.210526
-0.8602401 -2.2906809 0.34631428 1
-0.70708829 -2.2886689 0.38973698 1
1.6940646 -2.2383671 0.35833675 75
1.7055193 -2.2462695 0.32586235 57.5
2.5910227 -2.2458134 0.33508867 1
2.644536 -2.2952487 0.32480943 64.777779
2.7278385 -2.20028 0.39054152 84
-0.85428184 -2.1959162 0.32075003 69
0.37293896 -2.1387947 0.35323092 15.877551
0.40321085 -2.1761148 0.32982513 2
2.1278112 -2.1344006 0.3976748 82
1.3314139 -2.0077851 0.33313203 1
-1.4414458 -1.9647853 0.35903782 9.25
-1.3857726 -1.9628707 0.36401522 10
-1.2159418 -1.9555348 0.30058569 95
-0.17704108 -1.9259936 0.37974674 1
1.291194 -1.9421487 0.32531303 2
-1.6031635 -1.8612975 0.3407535 13
-1.5712907 -1.8708825 0.35658854 7
-1.2520926 -1.8851675 0.30275947 7
-0.16161124 -1.8711218 0.35332635 12.490196
0.99604154 -1.8986888 0.3519519 7
1.051317 -1.8191463 0.38171721 3.875
1.2110547 -1.8285928 0.30779788 16.333334
1.0715866 -1.7485927 0.34795716 4.625
1.142233 -1.7276605 0.35389537 6.5714288
1.2782083 -1.737463 0.3665463 6.3333335
1.3382747 -1.7498124 0.36761686 41.5
2.7419715 -1.784304 0.36542144 76
-1.3907464 -1.6815606 0.37877965 30
-1.2667003 -1.6459789 0.32113928 4.1999998
1.0937607 -1.6771014 0.35906273 1.9
1.1412133 -1.6742671 0.35012513 14.944445
1.2539036 -1.6517476 0.35151196 24.621622
1.324195 -1.6596456 0.33515629 17.916666
2.8511777 -1.6011274 0.31107798 2
2.9881246 -1.6208974 0.32017294 1
-1.2557952 -1.5453777 0.32530129 14
1.2938589 -1.5583978 0.32055265 51
1.3020358 -1.5741341 0.3030735 70
2.6964324 -1.5554981 0.38390675 76
2.703979 -1.5569336 0.36960667 73
2.8491914 -1.594586 0.30889568 4
2.9815197 -1.5829602 0.31773573 1
3.0130808 -1.5609915 0.34985554 1
-1.3035182 -1.4787219 0.32290259 7
-1.2516809 -1.449668 0.31876105 17.4
-1.3052185 -1.3272582 0.33727661 3.3333333
-1.2739443 -1.3365951 0.33790267 21.333334
-1.5357151 -1.2242171 0.38180017 1
-1.2885656 -1.2535152 0.34204391 3
3.0517461 -1.2964678 0.34584776 1
-1.6336837 -1.1287581 0.3869608 3.8888888
-1.5823845 -1.1614597 0.37978959 12.375
-1.3044643 -1.1933304 0.34038955 2
-1.2334998 -1.1378224 0.35605878 33.095745
3.021024 -1.1196176 0.37220728 1
-1.6031799 -1.0992422 0.37117052 2
-1.586023 -1.0872099 0.36901325 1.5
-1.3138356 -1.0584979 0.35108301 2.8888888
-1.2847688 -1.053544 0.34468269 4.852941
2.9867604 -1.0592514 0.35789844 1
3.0279121 -1.0592198 0.35922784 1
-1.3299222 -0.96143717 0.36183512 1
-1.3224003 -0.87814367 0.3303152 1
-1.2962993 -0.85859525 0.31228518 1
4.9486175 -0.82086325 0.38336757 2
-1.3107852 -0.7155689 0.398022 1
-1.2880723 -0.71453255 0.37780395 1
2.4857268 -0.71905094 0.36285484 2.7272727
2.5211313 -0.74154127 0.35201633 1.9074074
2.2742014 -0.60584342 0.3854557 4
2.4881759 -0.69451576 0.34842095 15.166667
-1.301122 -0.53893483 0.36505449 1
-1.2621005 -0.53303057 0.34090456 1.25
2.2563727 -0.55909407 0.34788132 4.25
2.5658703 -0.51939011 0.34799826 15.75
-1.3119377 -0.4433288 0.3748889 1
-1.294765 -0.42912501 0.3784439 1
2.2822561 -0.43601164 0.34888464 18.264706
2.3230579 -0.41520962 0.36275822 19.375
2.4411252 -0.44352978 0.33634597 23
2.5348616 -0.40189242 0.34437078 3.5
-1.3202363 -0.32476369 0.33854097 1
-1.2877249 -0.37137091 0.34041694 1
2.4830368 -0.36009464 0.36159936 5.3800001
2.5241456 -0.37741345 0.34073755 4.1999998
-1.3164498 -0.27793697 0.35269821 1
-1.2469294 -0.24025397 0.34242508 11.107142
-1.1894418 -0.22102439 0.3526133 33.083332
2.3901277 -0.21660815 0.30109128 110
2.5516913 -0.2102446 0.34845093 7.7166667
-1.3214828 -0.15399718 0.37092111 1
-1.2794143 -0.17093469 0.31176823 5.5
2.5610759 -0.19148768 0.35518724 4.4814816
2.6057513 -0.18797764 0.32728457 2
-1.3067042 -0.042168446 0.35190201 1
-1.2881272 -0.066476509 0.3325004 1
2.7578263 -0.0048516244 0.31262535 1
-1.3032306 0.18954206 0.32584712 1
-1.277679 0.17009725 0.37477574 1
-1.3133199 0.24523738 0.35646966 1
6.5390139 0.25718555 0.34670094 10.9
-1.3094251 0.34270027 0.32266569 1
-1.29085 0.35492918 0.34210479 1
6.5505948 0.34218118 0.36089426 6.8571429
2.8393946 0.41577995 0.3711713 1
-1.3060575 0.54594493 0.34672099 1
-1.2863601 0.51751912 0.32311761 1
6.6727633 0.54317802 0.35773155 18
-1.3266855 0.64894998 0.32938799 2
-1.272692 0.63499075 0.35623994 8.1428576
-1.1885107 0.64527893 0.3440358 35
6.574615 0.60253924 0.34277758 2
6.6383948 0.60604006 0.33667481 27
-1.5183893 0.73228234 0.36218119 6.0769229
-1.4834367 0.72653329 0.35605216 19.714285
-1.2123359 0.75032198 0.35423255 1.75
-1.1914958 0.74550939 0.36501512 2.5999999
-1.5223171 0.87059546 0.37613025 1
2.7714097 0.88172358 0.36957839 65.666664
2.8640563 0.83912724 0.36892095 1.1851852
2.9161663 0.82998157 0.35437843 1
-1.5161047 0.93743038 0.36907238 1.7777778
1.4814755 0.99138528 0.32696995 55.409092
1.5042118 0.99910486 0.35001603 61
-1.5244037 1.0177889 0.38603801 1
1.4830412 1.0188006 0.35387039 61.041668
1.5072213 1.0140128 0.35286084 57.166668
-1.5068772 1.1742493 0.32920447 2
-1.4597808 1.1483048 0.3659904 1
-1.2701879 1.1235962 0.32120907 1
1.2703046 1.1935971 0.30007365 55
1.3454574 1.1864725 0.35135689 50.277779
