# .PCD v0.7 - Point Cloud Data file format
VERSION 0.7
FIELDS x y z intensity roll pitch yaw time
SIZE 4 4 4 4 4 4 4 8
TYPE F F F F F F F F
COUNT 1 1 1 1 1 1 1 1
WIDTH 52
HEIGHT 1
VIEWPOINT 0 0 0 1 0 0 0
POINTS 52
DATA ascii
-3.4937739e-06 3.3552581e-06 -1.7253333e-06 0 -0.0087436447 -0.0017497786 2.4189827e-13 1.517156e+09
0.18133494 -0.0040400038 -0.0019854649 1 -0.0050928206 -0.0051623713 -0.12404982 1.517156e+09
0.17068645 -0.025795134 -0.0041189375 2 0.00056599342 -0.0081602838 -0.24751638 1.517156e+09
0.16512822 -0.064316936 0.015067202 3 -0.00014121126 -0.0085331695 -0.4053967 1.517156e+09
0.15179184 -0.064143278 0.014143225 4 -0.003540159 -0.0086391298 -0.56008178 1.517156e+09
0.14470619 -0.096280165 0.024644578 5 -0.0034435499 -0.0049978714 -0.72749937 1.517156e+09
0.1621134 -0.037837662 0.0058646076 6 -0.0058218208 -0.00585031 -0.58748317 1.517156e+09
0.16604452 -0.011913695 0.014225408 7 -0.0056188651 -0.0036003746 -0.47678718 1.517156e+09
0.16427572 -0.0012246849 0.01750643 8 -0.0024481325 -0.0039669401 -0.36810037 1.517156e+09
0.15550603 0.024462003 0.0013427102 9 -0.0052817725 -0.0061149439 -0.24366851 1.517156e+09
0.13797696 0.050562326 -0.0015600232 10 -0.0040912637 -0.0073601119 -0.13334768 1.517156e+09
0.13206309 0.060330875 0.00092240691 11 -0.0044656238 -0.0026246505 -0.019128481 1.517156e+09
0.47061944 0.093184881 -0.0011338942 12 -0.0057641147 -0.0069989562 0.12619986 1.517156e+09
0.48452246 0.12960313 0.022858005 13 -0.0053285318 -0.003757196 0.28006834 1.517156e+09
0.45997965 0.16357243 0.016434696 14 -0.004454169 -0.0074173114 0.39211991 1.517156e+09
0.43015769 0.19098593 0.008155168 15 -0.0082367985 0.0019950566 0.52028149 1.517156e+09
0.42479721 0.2073596 -0.011272443 16 -0.009968061 -0.00038676074 0.62704092 1.517156e+09
0.39521298 0.22995357 0.0054503209 17 -0.0072485069 0.0026533161 0.75984859 1.517156e+09
0.36953074 0.24736689 0.0074582542 18 -0.0059230919 0.0026175582 0.89573669 1.517156e+09
0.34888485 0.24642807 -0.0020523029 19 -0.0061307335 0.0028235752 1.0189708 1.517156e+09
0.33565742 0.24379452 -0.0015114326 20 -0.0051890276 0.0026304557 1.1335491 1.517156e+09
0.38351446 0.30475125 -0.011434678 21 -0.0019541595 0.0028030919 1.2360597 1.517156e+09
0.57875109 0.88100183 0.0036069592 22 -0.00013273845 0.0066389916 1.2508352 1.517156e+09
0.69724005 1.0840021 0.01955702 23 0.0051227673 0.0058259256 1.3816189 1.517156e+09
0.67424929 1.0821559 0.013187935 24 0.0037711405 0.0044639865 1.513039 1.517156e+09
0.6793595 0.56324637 0.015053875 25 0.0065864297 0.012804268 1.5509068 1.5171561e+09
0.69294542 0.055120356 0.018004615 26 0.0022278901 0.0016716595 1.5617442 1.5171561e+09
0.66140693 -0.057025127 0.0055737938 27 -0.0012058504 0.0059420504 1.6776385 1.5171561e+09
0.62362468 -0.064553089 0.021394532 28 -0.00064858719 0.0079304846 1.8145328 1.5171561e+09
0.61237949 -0.082206361 -0.0096837012 29 0.0012026884 0.012597439 1.9231783 1.5171561e+09
0.58756012 -0.1047406 0.0030225003 30 0.0019259427 0.0076218587 2.0549736 1.5171561e+09
0.56646198 -0.11468241 0.0066986224 31 0.001105326 0.0086912652 2.1802185 1.5171561e+09
0.55730343 -0.13608246 0.023381883 32 0.010034719 0.0062737726 2.2997217 1.5171561e+09
0.54686457 -0.17537415 0.010345529 33 0.0036064459 0.0055441801 2.4404852 1.5171561e+09
0.55831242 -0.19985126 0.0034090795 34 0.0027857847 0.0049894075 2.5849123 1.5171561e+09
0.56060117 -0.22069645 0.0059472313 35 0.004459451 0.0044108471 2.7374871 1.5171561e+09
0.5694049 -0.21133244 0.016813327 36 0.010649832 0.0051241196 2.8410046 1.5171561e+09
0.012196887 -0.053285908 -0.018135414 37 0.0099349124 0.0069002653 2.8621836 1.5171561e+09
-0.29260632 0.071223736 0.020053132 38 0.01401423 -0.0070047756 2.7427857 1.5171561e+09
-0.29128015 0.087417752 0.014680702 39 0.013904349 -0.0027719168 2.6205125 1.5171561e+09
-0.2959547 0.035723593 0.015887944 40 0.0042220093 0.0010412227 2.7407961 1.5171561e+09
-0.30709884 0.0036316211 0.0079885274 41 0.004762351 0.0024344758 2.8691704 1.5171561e+09
-0.30948281 -0.012956157 0.011305866 42 0.006282791 -0.0013460874 2.9832706 1.5171561e+09
-0.30647776 -0.035640907 0.019143213 43 0.0095570767 -0.0023421042 3.1092701 1.5171561e+09
-0.28903466 -0.053265519 0.015021963 44 0.0085699465 -0.0076034204 -3.0136812 1.5171561e+09
-0.25450194 -0.074028194 -0.030245256 45 0.0097841192 0.0075617 -2.8699193 1.5171561e+09
-0.23451145 -0.075906791 -0.022545185 46 0.0077589029 -0.0014649847 -2.7625706 1.5171561e+09
-0.23912457 -0.045055293 -0.0067355265 47 0.0074361074 -0.0015758629 -2.6546533 1.5171561e+09
0.05011116 -0.15620509 0.008449926 48 0.0095681399 -0.0021690663 -2.7924676 1.5171562e+09
0.044655144 -0.10213438 0.0075177122 49 0.0092111956 -0.00040935475 -2.981348 1.5171562e+09
0.035810515 -0.067697249 -0.005014976 50 0.0059799389 0.0016806265 3.1271675 1.5171562e+09
0.03592445 -0.048334077 0.0031227595 51 0.012444607 0.0023206705 2.966012 1.5171562e+09
